           5
 -5.6947903E-03 -5.6953309E-03 -7.6338255E-11 -5.8532404E-08 -1.1686120E-07
 -1.7519000E-07 -2.3351879E-07 -2.9184758E-07 -3.5017638E-07 -4.0850517E-07
 -4.6683397E-07 -5.2516276E-07 -5.8349156E-07 -6.4168563E-07  5.6946892E-03
  5.6941486E-03  5.6940899E-03  5.6940317E-03  5.6939735E-03  5.6939153E-03
  5.6938566E-03  5.6937984E-03  5.6937402E-03  5.6936820E-03  5.6936233E-03
  5.6940475E-03  1.1258894E-02  1.1257876E-02  1.1257817E-02  1.1257758E-02
  1.1257701E-02  1.1257642E-02  1.1257583E-02  1.1257526E-02  1.1257467E-02
  1.1257409E-02  1.1257350E-02  1.1258252E-02  1.6661482E-02  1.6659997E-02
  1.6659940E-02  1.6659882E-02  1.6659822E-02  1.6659765E-02  1.6659707E-02
  1.6659647E-02  1.6659589E-02  1.6659532E-02  1.6659472E-02  1.6660841E-02
  2.2061734E-02  2.2059789E-02  2.2059731E-02  2.2059673E-02  2.2059614E-02
  2.2059556E-02  2.2059498E-02  2.2059439E-02  2.2059381E-02  2.2059323E-02
  2.2059264E-02  2.2061091E-02
 -2.2061728E-02 -2.2059903E-02 -2.2059960E-02 -2.2060018E-02 -2.2060078E-02
 -2.2060135E-02 -2.2060193E-02 -2.2060253E-02 -2.2060310E-02 -2.2060368E-02
 -2.2060428E-02 -2.2062371E-02 -2.2625288E-02 -2.2623446E-02 -2.2623491E-02
 -2.2623533E-02 -2.2623578E-02 -2.2623621E-02 -2.2623666E-02 -2.2623708E-02
 -2.2623753E-02 -2.2623796E-02 -2.2623841E-02 -2.2625769E-02 -2.3745516E-02
 -2.3743661E-02 -2.3743689E-02 -2.3743719E-02 -2.3743749E-02 -2.3743777E-02
 -2.3743806E-02 -2.3743836E-02 -2.3743864E-02 -2.3743894E-02 -2.3743924E-02
 -2.3745837E-02 -2.4719542E-02 -2.4717672E-02 -2.4717687E-02 -2.4717702E-02
 -2.4717717E-02 -2.4717731E-02 -2.4717744E-02 -2.4717759E-02 -2.4717774E-02
 -2.4717789E-02 -2.4717804E-02 -2.4719704E-02 -2.5098082E-02 -2.5096197E-02
 -2.5096197E-02 -2.5096197E-02 -2.5096197E-02 -2.5096197E-02 -2.5096197E-02
 -2.5096197E-02 -2.5096197E-02 -2.5096197E-02 -2.5096197E-02 -2.5098082E-02
 -2.4719542E-02 -2.4717644E-02 -2.4717629E-02 -2.4717614E-02 -2.4717599E-02
 -2.4717584E-02 -2.4717569E-02 -2.4717556E-02 -2.4717541E-02 -2.4717527E-02
 -2.4717512E-02 -2.4719382E-02 -2.3745516E-02 -2.3743602E-02 -2.3743574E-02
 -2.3743544E-02 -2.3743514E-02 -2.3743486E-02 -2.3743456E-02 -2.3743426E-02
 -2.3743398E-02 -2.3743369E-02 -2.3743339E-02 -2.3745196E-02 -2.2625288E-02
 -2.2623358E-02 -2.2623315E-02 -2.2623271E-02 -2.2623228E-02 -2.2623183E-02
 -2.2623140E-02 -2.2623096E-02 -2.2623053E-02 -2.2623008E-02 -2.2622965E-02
 -2.2624807E-02 -2.2061728E-02 -2.2059785E-02 -2.2059726E-02 -2.2059668E-02
 -2.2059610E-02 -2.2059551E-02 -2.2059493E-02 -2.2059435E-02 -2.2059377E-02
 -2.2059318E-02 -2.2059260E-02 -2.2061087E-02 -1.6662063E-02 -1.6660647E-02
 -1.6660705E-02 -1.6660765E-02 -1.6660823E-02 -1.6660880E-02 -1.6660940E-02
 -1.6660998E-02 -1.6661055E-02 -1.6661115E-02 -1.6661173E-02 -1.6662706E-02
 -1.7088031E-02 -1.7086601E-02 -1.7086646E-02 -1.7086688E-02 -1.7086731E-02
 -1.7086776E-02 -1.7086819E-02 -1.7086864E-02 -1.7086906E-02 -1.7086951E-02
 -1.7086994E-02 -1.7088512E-02 -1.7934658E-02 -1.7933212E-02 -1.7933242E-02
 -1.7933270E-02 -1.7933300E-02 -1.7933328E-02 -1.7933358E-02 -1.7933387E-02
 -1.7933415E-02 -1.7933445E-02 -1.7933475E-02 -1.7934978E-02 -1.8670764E-02
 -1.8669305E-02 -1.8669318E-02 -1.8669333E-02 -1.8669348E-02 -1.8669363E-02
 -1.8669378E-02 -1.8669391E-02 -1.8669406E-02 -1.8669421E-02 -1.8669436E-02
 -1.8670924E-02 -1.8956827E-02 -1.8955352E-02 -1.8955352E-02 -1.8955352E-02
 -1.8955352E-02 -1.8955352E-02 -1.8955352E-02 -1.8955352E-02 -1.8955352E-02
 -1.8955352E-02 -1.8955352E-02 -1.8956825E-02 -1.8670764E-02 -1.8669276E-02
 -1.8669261E-02 -1.8669246E-02 -1.8669233E-02 -1.8669218E-02 -1.8669203E-02
 -1.8669188E-02 -1.8669173E-02 -1.8669160E-02 -1.8669145E-02 -1.8670604E-02
 -1.7934658E-02 -1.7933154E-02 -1.7933125E-02 -1.7933097E-02 -1.7933067E-02
 -1.7933037E-02 -1.7933009E-02 -1.7932979E-02 -1.7932950E-02 -1.7932922E-02
 -1.7932892E-02 -1.7934337E-02 -1.7088031E-02 -1.7086513E-02 -1.7086470E-02
 -1.7086426E-02 -1.7086383E-02 -1.7086338E-02 -1.7086295E-02 -1.7086251E-02
 -1.7086208E-02 -1.7086163E-02 -1.7086120E-02 -1.7087551E-02 -1.6662063E-02
 -1.6660530E-02 -1.6660472E-02 -1.6660415E-02 -1.6660357E-02 -1.6660297E-02
 -1.6660240E-02 -1.6660182E-02 -1.6660122E-02 -1.6660064E-02 -1.6660007E-02
 -1.6661422E-02 -1.1261399E-02 -1.1260401E-02 -1.1260460E-02 -1.1260518E-02
 -1.1260577E-02 -1.1260635E-02 -1.1260693E-02 -1.1260752E-02 -1.1260809E-02
 -1.1260868E-02 -1.1260927E-02 -1.1262041E-02 -1.1547565E-02 -1.1546553E-02
 -1.1546597E-02 -1.1546641E-02 -1.1546684E-02 -1.1546728E-02 -1.1546771E-02
 -1.1546815E-02 -1.1546859E-02 -1.1546902E-02 -1.1546946E-02 -1.1548046E-02
 -1.2116194E-02 -1.2115167E-02 -1.2115195E-02 -1.2115224E-02 -1.2115253E-02
 -1.2115282E-02 -1.2115311E-02 -1.2115340E-02 -1.2115370E-02 -1.2115398E-02
 -1.2115427E-02 -1.2116512E-02 -1.2610559E-02 -1.2609518E-02 -1.2609532E-02
 -1.2609547E-02 -1.2609561E-02 -1.2609576E-02 -1.2609590E-02 -1.2609605E-02
 -1.2609619E-02 -1.2609634E-02 -1.2609648E-02 -1.2610719E-02 -1.2802658E-02
 -1.2801602E-02 -1.2801602E-02 -1.2801602E-02 -1.2801602E-02 -1.2801602E-02
 -1.2801602E-02 -1.2801602E-02 -1.2801602E-02 -1.2801602E-02 -1.2801602E-02
 -1.2802658E-02 -1.2610559E-02 -1.2609489E-02 -1.2609474E-02 -1.2609460E-02
 -1.2609445E-02 -1.2609432E-02 -1.2609417E-02 -1.2609403E-02 -1.2609388E-02
 -1.2609374E-02 -1.2609359E-02 -1.2610401E-02 -1.2116194E-02 -1.2115109E-02
 -1.2115080E-02 -1.2115051E-02 -1.2115021E-02 -1.2114992E-02 -1.2114963E-02
 -1.2114935E-02 -1.2114906E-02 -1.2114877E-02 -1.2114848E-02 -1.2115875E-02
 -1.1547566E-02 -1.1546466E-02 -1.1546423E-02 -1.1546379E-02 -1.1546335E-02
 -1.1546291E-02 -1.1546248E-02 -1.1546205E-02 -1.1546161E-02 -1.1546117E-02
 -1.1546073E-02 -1.1547086E-02 -1.1261400E-02 -1.1260286E-02 -1.1260227E-02
 -1.1260169E-02 -1.1260111E-02 -1.1260052E-02 -1.1259994E-02 -1.1259936E-02
 -1.1259877E-02 -1.1259819E-02 -1.1259761E-02 -1.1260758E-02 -5.6998068E-03
 -5.6992364E-03 -5.6992951E-03 -5.6993533E-03 -5.6994115E-03 -5.6994697E-03
 -5.6995284E-03 -5.6995866E-03 -5.6996448E-03 -5.6997030E-03 -5.6997617E-03
 -5.7004485E-03 -5.8428640E-03 -5.8422792E-03 -5.8423229E-03 -5.8423667E-03
 -5.8424100E-03 -5.8424538E-03 -5.8424976E-03 -5.8425409E-03 -5.8425847E-03
 -5.8426280E-03 -5.8426717E-03 -5.8433437E-03 -6.1269174E-03 -6.1263181E-03
 -6.1263470E-03 -6.1263759E-03 -6.1264047E-03 -6.1264336E-03 -6.1264625E-03
 -6.1264914E-03 -6.1265202E-03 -6.1265491E-03 -6.1265780E-03 -6.1272355E-03
 -6.3738241E-03 -6.3732099E-03 -6.3732243E-03 -6.3732387E-03 -6.3732532E-03
 -6.3732676E-03 -6.3732816E-03 -6.3732960E-03 -6.3733105E-03 -6.3733249E-03
 -6.3733393E-03 -6.3739824E-03 -6.4697363E-03 -6.4691077E-03 -6.4691077E-03
 -6.4691077E-03 -6.4691077E-03 -6.4691077E-03 -6.4691077E-03 -6.4691077E-03
 -6.4691077E-03 -6.4691077E-03 -6.4691077E-03 -6.4697363E-03 -6.3738246E-03
 -6.3731815E-03 -6.3731670E-03 -6.3731531E-03 -6.3731386E-03 -6.3731242E-03
 -6.3731098E-03 -6.3730953E-03 -6.3730809E-03 -6.3730665E-03 -6.3730525E-03
 -6.3736667E-03 -6.1269184E-03 -6.1262609E-03 -6.1262320E-03 -6.1262031E-03
 -6.1261742E-03 -6.1261454E-03 -6.1261165E-03 -6.1260876E-03 -6.1260588E-03
 -6.1260299E-03 -6.1260010E-03 -6.1266003E-03 -5.8428654E-03 -5.8421930E-03
 -5.8421497E-03 -5.8421060E-03 -5.8420622E-03 -5.8420189E-03 -5.8419751E-03
 -5.8419313E-03 -5.8418880E-03 -5.8418442E-03 -5.8418005E-03 -5.8423858E-03
 -5.6998082E-03 -5.6991214E-03 -5.6990632E-03 -5.6990045E-03 -5.6989463E-03
 -5.6988881E-03 -5.6988299E-03 -5.6987712E-03 -5.6987130E-03 -5.6986548E-03
 -5.6985961E-03 -5.6991666E-03 -7.1499076E-06 -7.0117367E-06 -7.0700607E-06
 -7.1283853E-06 -7.1867094E-06 -7.2450334E-06 -7.3033580E-06 -7.3616820E-06
 -7.4200061E-06 -7.4783306E-06 -7.5366547E-06 -7.7914665E-06 -5.6162180E-06
 -5.4633065E-06 -5.5068963E-06 -5.5504865E-06 -5.5940764E-06 -5.6376666E-06
 -5.6812564E-06 -5.7248467E-06 -5.7684365E-06 -5.8120268E-06 -5.8556166E-06
 -6.0957013E-06 -2.1477135E-06 -1.9800614E-06 -2.0089167E-06 -2.0377722E-06
 -2.0666275E-06 -2.0954828E-06 -2.1243382E-06 -2.1531935E-06 -2.1820490E-06
 -2.2109043E-06 -2.2397596E-06 -2.4651176E-06  9.6840017E-07  1.1505749E-06
  1.1362362E-06  1.1218974E-06  1.1075587E-06  1.0932198E-06  1.0788810E-06
  1.0645423E-06  1.0502034E-06  1.0358647E-06  1.0215259E-06  8.1067668E-07
  2.2389495E-06  2.4354679E-06  2.4354663E-06  2.4354647E-06  2.4354633E-06
  2.4354617E-06  2.4354601E-06  2.4354588E-06  2.4354572E-06  2.4354556E-06
  2.4354542E-06  2.2389343E-06  9.6782014E-07  1.1786835E-06  1.1930210E-06
  1.2073584E-06  1.2216958E-06  1.2360332E-06  1.2503706E-06  1.2647081E-06
  1.2790455E-06  1.2933829E-06  1.3077203E-06  1.1255313E-06 -2.1487845E-06
 -1.9233942E-06 -1.8945362E-06 -1.8656782E-06 -1.8368203E-06 -1.8079622E-06
 -1.7791042E-06 -1.7502463E-06 -1.7213882E-06 -1.6925302E-06 -1.6636723E-06
 -1.8313484E-06 -5.6177910E-06 -5.3776553E-06 -5.3340582E-06 -5.2904611E-06
 -5.2468640E-06 -5.2032669E-06 -5.1596699E-06 -5.1160728E-06 -5.0724752E-06
 -5.0288781E-06 -4.9852811E-06 -5.1382258E-06 -7.1519589E-06 -6.8970817E-06
 -6.8387480E-06 -6.7804149E-06 -6.7220817E-06 -6.6637481E-06 -6.6054149E-06
 -6.5470817E-06 -6.4887481E-06 -6.4304149E-06 -6.3720818E-06 -6.5102977E-06
  5.6873527E-03  5.6870589E-03  5.6870007E-03  5.6869420E-03  5.6868838E-03
  5.6868256E-03  5.6867674E-03  5.6867087E-03  5.6866505E-03  5.6865923E-03
  5.6865341E-03  5.6867111E-03  5.8335220E-03  5.8332430E-03  5.8331992E-03
  5.8331555E-03  5.8331122E-03  5.8330684E-03  5.8330246E-03  5.8329813E-03
  5.8329375E-03  5.8328938E-03  5.8328505E-03  5.8330423E-03  6.1246012E-03
  6.1243363E-03  6.1243074E-03  6.1242785E-03  6.1242497E-03  6.1242208E-03
  6.1241919E-03  6.1241630E-03  6.1241342E-03  6.1241053E-03  6.1240764E-03
  6.1242832E-03  6.3778167E-03  6.3775666E-03  6.3775522E-03  6.3775382E-03
  6.3775238E-03  6.3775093E-03  6.3774949E-03  6.3774805E-03  6.3774660E-03
  6.3774516E-03  6.3774376E-03  6.3776588E-03  6.4762998E-03  6.4760642E-03
  6.4760642E-03  6.4760642E-03  6.4760642E-03  6.4760642E-03  6.4760642E-03
  6.4760642E-03  6.4760642E-03  6.4760642E-03  6.4760642E-03  6.4762998E-03
  6.3778162E-03  6.3775950E-03  6.3776090E-03  6.3776234E-03  6.3776379E-03
  6.3776523E-03  6.3776667E-03  6.3776812E-03  6.3776956E-03  6.3777096E-03
  6.3777240E-03  6.3779741E-03  6.1245998E-03  6.1243931E-03  6.1244220E-03
  6.1244508E-03  6.1244797E-03  6.1245086E-03  6.1245374E-03  6.1245663E-03
  6.1245952E-03  6.1246241E-03  6.1246529E-03  6.1249174E-03  5.8335201E-03
  5.8333282E-03  5.8333715E-03  5.8334153E-03  5.8334591E-03  5.8335024E-03
  5.8335462E-03  5.8335899E-03  5.8336332E-03  5.8336770E-03  5.8337208E-03
  5.8340002E-03  5.6873504E-03  5.6871730E-03  5.6872312E-03  5.6872894E-03
  5.6873481E-03  5.6874063E-03  5.6874645E-03  5.6875232E-03  5.6875814E-03
  5.6876396E-03  5.6876978E-03  5.6879921E-03  1.1253551E-02  1.1252829E-02
  1.1252770E-02  1.1252712E-02  1.1252654E-02  1.1252595E-02  1.1252537E-02
  1.1252479E-02  1.1252421E-02  1.1252362E-02  1.1252304E-02  1.1252909E-02
  1.1542943E-02  1.1542236E-02  1.1542193E-02  1.1542149E-02  1.1542105E-02
  1.1542061E-02  1.1542019E-02  1.1541975E-02  1.1541931E-02  1.1541887E-02
  1.1541843E-02  1.1542464E-02  1.2118825E-02  1.2118133E-02  1.2118103E-02
  1.2118074E-02  1.2118045E-02  1.2118016E-02  1.2117987E-02  1.2117959E-02
  1.2117930E-02  1.2117900E-02  1.2117871E-02  1.2118506E-02  1.2619698E-02
  1.2619020E-02  1.2619006E-02  1.2618992E-02  1.2618978E-02  1.2618963E-02
  1.2618948E-02  1.2618934E-02  1.2618919E-02  1.2618905E-02  1.2618890E-02
  1.2619539E-02  1.2814445E-02  1.2813782E-02  1.2813782E-02  1.2813782E-02
  1.2813781E-02  1.2813781E-02  1.2813781E-02  1.2813781E-02  1.2813781E-02
  1.2813781E-02  1.2813781E-02  1.2814445E-02  1.2619697E-02  1.2619048E-02
  1.2619063E-02  1.2619077E-02  1.2619092E-02  1.2619106E-02  1.2619121E-02
  1.2619135E-02  1.2619150E-02  1.2619164E-02  1.2619179E-02  1.2619857E-02
  1.2118824E-02  1.2118189E-02  1.2118218E-02  1.2118246E-02  1.2118276E-02
  1.2118305E-02  1.2118334E-02  1.2118363E-02  1.2118392E-02  1.2118421E-02
  1.2118449E-02  1.2119142E-02  1.1542941E-02  1.1542321E-02  1.1542365E-02
  1.1542409E-02  1.1542452E-02  1.1542496E-02  1.1542540E-02  1.1542584E-02
  1.1542627E-02  1.1542670E-02  1.1542714E-02  1.1543422E-02  1.1253548E-02
  1.1252942E-02  1.1253001E-02  1.1253059E-02  1.1253118E-02  1.1253176E-02
  1.1253234E-02  1.1253293E-02  1.1253350E-02  1.1253409E-02  1.1253468E-02
  1.1254190E-02  1.6659571E-02  1.6658431E-02  1.6658371E-02  1.6658314E-02
  1.6658256E-02  1.6658196E-02  1.6658138E-02  1.6658081E-02  1.6658021E-02
  1.6657963E-02  1.6657906E-02  1.6658928E-02  1.7088901E-02  1.7087774E-02
  1.7087732E-02  1.7087687E-02  1.7087644E-02  1.7087601E-02  1.7087556E-02
  1.7087514E-02  1.7087469E-02  1.7087426E-02  1.7087381E-02  1.7088419E-02
  1.7943049E-02  1.7941939E-02  1.7941909E-02  1.7941881E-02  1.7941851E-02
  1.7941823E-02  1.7941793E-02  1.7941764E-02  1.7941736E-02  1.7941706E-02
  1.7941676E-02  1.7942730E-02  1.8685900E-02  1.8684803E-02  1.8684788E-02
  1.8684773E-02  1.8684760E-02  1.8684745E-02  1.8684730E-02  1.8684715E-02
  1.8684700E-02  1.8684687E-02  1.8684672E-02  1.8685739E-02  1.8974701E-02
  1.8973619E-02  1.8973619E-02  1.8973619E-02  1.8973619E-02  1.8973619E-02
  1.8973619E-02  1.8973619E-02  1.8973619E-02  1.8973619E-02  1.8973619E-02
  1.8974701E-02  1.8685898E-02  1.8684831E-02  1.8684845E-02  1.8684860E-02
  1.8684875E-02  1.8684888E-02  1.8684903E-02  1.8684918E-02  1.8684933E-02
  1.8684948E-02  1.8684961E-02  1.8686058E-02  1.7943049E-02  1.7941995E-02
  1.7942024E-02  1.7942054E-02  1.7942082E-02  1.7942112E-02  1.7942142E-02
  1.7942170E-02  1.7942199E-02  1.7942227E-02  1.7942257E-02  1.7943367E-02
  1.7088898E-02  1.7087860E-02  1.7087903E-02  1.7087948E-02  1.7087990E-02
  1.7088035E-02  1.7088078E-02  1.7088123E-02  1.7088166E-02  1.7088210E-02
  1.7088253E-02  1.7089378E-02  1.6659567E-02  1.6658543E-02  1.6658602E-02
  1.6658660E-02  1.6658718E-02  1.6658777E-02  1.6658835E-02  1.6658893E-02
  1.6658952E-02  1.6659010E-02  1.6659068E-02  1.6660208E-02  2.2061737E-02
  2.2060186E-02  2.2060128E-02  2.2060070E-02  2.2060011E-02  2.2059953E-02
  2.2059895E-02  2.2059835E-02  2.2059778E-02  2.2059720E-02  2.2059660E-02
  2.2061097E-02  2.2628725E-02  2.2627188E-02  2.2627143E-02  2.2627100E-02
  2.2627056E-02  2.2627013E-02  2.2626968E-02  2.2626925E-02  2.2626881E-02
  2.2626838E-02  2.2626793E-02  2.2628242E-02  2.3756607E-02  2.3755083E-02
  2.3755055E-02  2.3755025E-02  2.3754995E-02  2.3754967E-02  2.3754938E-02
  2.3754908E-02  2.3754880E-02  2.3754850E-02  2.3754820E-02  2.3756284E-02
  2.4737487E-02  2.4735980E-02  2.4735965E-02  2.4735950E-02  2.4735935E-02
  2.4735920E-02  2.4735907E-02  2.4735892E-02  2.4735877E-02  2.4735862E-02
  2.4735847E-02  2.4737326E-02  2.5118809E-02  2.5117317E-02  2.5117317E-02
  2.5117317E-02  2.5117317E-02  2.5117317E-02  2.5117317E-02  2.5117317E-02
  2.5117317E-02  2.5117317E-02  2.5117317E-02  2.5118809E-02  2.4737487E-02
  2.4736008E-02  2.4736023E-02  2.4736036E-02  2.4736051E-02  2.4736065E-02
  2.4736080E-02  2.4736095E-02  2.4736110E-02  2.4736123E-02  2.4736138E-02
  2.4737647E-02  2.3756605E-02  2.3755141E-02  2.3755169E-02  2.3755198E-02
  2.3755228E-02  2.3755256E-02  2.3755286E-02  2.3755316E-02  2.3755344E-02
  2.3755373E-02  2.3755403E-02  2.3756925E-02  2.2628721E-02  2.2627272E-02
  2.2627316E-02  2.2627359E-02  2.2627404E-02  2.2627447E-02  2.2627492E-02
  2.2627534E-02  2.2627579E-02  2.2627622E-02  2.2627665E-02  2.2629203E-02
  2.2061734E-02  2.2060299E-02  2.2060357E-02  2.2060415E-02  2.2060474E-02
  2.2060532E-02  2.2060590E-02  2.2060649E-02  2.2060707E-02  2.2060765E-02
  2.2060825E-02  2.2062376E-02
   4.163060       4.163060       4.163060       4.163060       4.163060    
   4.163060       4.163060       4.163060       4.163060       4.172758    
   4.172758       4.172758       4.172758       4.172758       4.172758    
   4.172758       4.172758       4.172758       4.182456       4.182456    
   4.182456       4.182456       4.182456       4.182456       4.182456    
   4.182456       4.182456       4.192154       4.192154       4.192154    
   4.192154       4.192154       4.192154       4.192154       4.192154    
   4.192154       4.201852       4.201852       4.201852       4.201852    
   4.201853       4.201853       4.201852       4.201852       4.201852    
   4.211551       4.211551       4.211551       4.211551       4.211551    
   4.211551       4.211551       4.211551       4.211551       4.221249    
   4.221249       4.221249       4.221249       4.221249       4.221249    
   4.221249       4.221249       4.221249       4.230947       4.230947    
   4.230947       4.230947       4.230947       4.230947       4.230947    
   4.230947       4.230947       4.240645       4.240645       4.240645    
   4.240645       4.240645       4.240645       4.240645       4.240645    
   4.240645       4.250343       4.250343       4.250343       4.250343    
   4.250344       4.250343       4.250343       4.250343       4.250343    
   4.260041       4.260041       4.260042       4.260042       4.260042    
   4.260042       4.260042       4.260041       4.260041       4.269740    
   4.269740       4.269740       4.269740       4.269740       4.269740    
   4.269740       4.269740       4.269740       4.163060       4.163060    
   4.163060       4.163060       4.163060       4.163060       4.163060    
   4.163060       4.163060       4.172758       4.172758       4.172758    
   4.172758       4.172759       4.172758       4.172758       4.172758    
   4.172758       4.182456       4.182456       4.182456       4.182456    
   4.182456       4.182456       4.182456       4.182456       4.182456    
   4.192154       4.192154       4.192154       4.192155       4.192155    
   4.192155       4.192154       4.192154       4.192154       4.201852    
   4.201852       4.201852       4.201853       4.201853       4.201853    
   4.201852       4.201852       4.201852       4.211551       4.211551    
   4.211551       4.211551       4.211551       4.211551       4.211551    
   4.211551       4.211551       4.221249       4.221249       4.221249    
   4.221249       4.221249       4.221249       4.221249       4.221249    
   4.221249       4.230947       4.230947       4.230947       4.230947    
   4.230947       4.230947       4.230947       4.230947       4.230947    
   4.240645       4.240645       4.240645       4.240645       4.240645    
   4.240645       4.240645       4.240645       4.240645       4.250343    
   4.250343       4.250343       4.250344       4.250344       4.250344    
   4.250343       4.250343       4.250343       4.260041       4.260041    
   4.260041       4.260042       4.260042       4.260042       4.260041    
   4.260041       4.260041       4.269740       4.269740       4.269740    
   4.269740       4.269740       4.269740       4.269740       4.269740    
   4.269740    
 -6.0657602E-02 -7.1369469E-02 -7.9347029E-02 -8.4281318E-02 -8.5990414E-02
 -8.4365726E-02 -7.9508170E-02 -7.1604274E-02 -6.0950100E-02 -6.0654011E-02
 -7.1346842E-02 -7.9310983E-02 -8.4249392E-02 -8.5985757E-02 -8.4343404E-02
 -7.9481475E-02 -7.1590178E-02 -6.0946118E-02 -6.0654011E-02 -7.1346842E-02
 -7.9310983E-02 -8.4249392E-02 -8.5985757E-02 -8.4343404E-02 -7.9481475E-02
 -7.1590178E-02 -6.0946118E-02 -6.0654011E-02 -7.1346842E-02 -7.9310983E-02
 -8.4249392E-02 -8.5985757E-02 -8.4343404E-02 -7.9481475E-02 -7.1590178E-02
 -6.0946118E-02 -6.0654011E-02 -7.1346842E-02 -7.9310983E-02 -8.4249392E-02
 -8.5985757E-02 -8.4343404E-02 -7.9481475E-02 -7.1590178E-02 -6.0946118E-02
 -6.0654011E-02 -7.1346842E-02 -7.9310983E-02 -8.4249392E-02 -8.5985757E-02
 -8.4343404E-02 -7.9481475E-02 -7.1590178E-02 -6.0946118E-02 -6.0654011E-02
 -7.1346842E-02 -7.9310983E-02 -8.4249392E-02 -8.5985757E-02 -8.4343404E-02
 -7.9481475E-02 -7.1590178E-02 -6.0946118E-02 -6.0654011E-02 -7.1346842E-02
 -7.9310983E-02 -8.4249392E-02 -8.5985757E-02 -8.4343404E-02 -7.9481475E-02
 -7.1590178E-02 -6.0946118E-02 -6.0654011E-02 -7.1346842E-02 -7.9310983E-02
 -8.4249392E-02 -8.5985757E-02 -8.4343404E-02 -7.9481475E-02 -7.1590178E-02
 -6.0946118E-02 -6.0654011E-02 -7.1346842E-02 -7.9310983E-02 -8.4249392E-02
 -8.5985757E-02 -8.4343404E-02 -7.9481475E-02 -7.1590178E-02 -6.0946118E-02
 -6.0654011E-02 -7.1346842E-02 -7.9310983E-02 -8.4249392E-02 -8.5985757E-02
 -8.4343404E-02 -7.9481475E-02 -7.1590178E-02 -6.0946114E-02 -6.0657602E-02
 -7.1369469E-02 -7.9347029E-02 -8.4281318E-02 -8.5990414E-02 -8.4365726E-02
 -7.9508170E-02 -7.1604274E-02 -6.0950100E-02 -2.2061734E-02 -2.2626599E-02
 -2.3750389E-02 -2.4727883E-02 -2.5107909E-02 -2.4729162E-02 -2.3751739E-02
 -2.2627415E-02 -2.2061734E-02 -2.2060184E-02 -2.2625014E-02 -2.3748770E-02
 -2.4726229E-02 -2.5106221E-02 -2.4727438E-02 -2.3749979E-02 -2.2625621E-02
 -2.2059906E-02 -2.2060124E-02 -2.2624971E-02 -2.3748741E-02 -2.4726214E-02
 -2.5106221E-02 -2.4727453E-02 -2.3750009E-02 -2.2625664E-02 -2.2059964E-02
 -2.2060066E-02 -2.2624927E-02 -2.3748713E-02 -2.4726201E-02 -2.5106221E-02
 -2.4727466E-02 -2.3750037E-02 -2.2625709E-02 -2.2060024E-02 -2.2060009E-02
 -2.2624884E-02 -2.3748683E-02 -2.4726186E-02 -2.5106221E-02 -2.4727480E-02
 -2.3750067E-02 -2.2625752E-02 -2.2060081E-02 -2.2059949E-02 -2.2624839E-02
 -2.3748653E-02 -2.4726171E-02 -2.5106221E-02 -2.4727495E-02 -2.3750097E-02
 -2.2625796E-02 -2.2060139E-02 -2.2059891E-02 -2.2624796E-02 -2.3748625E-02
 -2.4726156E-02 -2.5106221E-02 -2.4727510E-02 -2.3750124E-02 -2.2625839E-02
 -2.2060199E-02 -2.2059834E-02 -2.2624752E-02 -2.3748595E-02 -2.4726141E-02
 -2.5106221E-02 -2.4727525E-02 -2.3750154E-02 -2.2625884E-02 -2.2060256E-02
 -2.2059774E-02 -2.2624709E-02 -2.3748565E-02 -2.4726126E-02 -2.5106221E-02
 -2.4727540E-02 -2.3750182E-02 -2.2625927E-02 -2.2060314E-02 -2.2059716E-02
 -2.2624664E-02 -2.3748538E-02 -2.4726113E-02 -2.5106221E-02 -2.4727553E-02
 -2.3750212E-02 -2.2625972E-02 -2.2060372E-02 -2.2059659E-02 -2.2624621E-02
 -2.3748508E-02 -2.4726098E-02 -2.5106221E-02 -2.4727568E-02 -2.3750242E-02
 -2.2626014E-02 -2.2060432E-02 -2.2061093E-02 -2.2626117E-02 -2.3750067E-02
 -2.4727723E-02 -2.5107909E-02 -2.4729323E-02 -2.3752060E-02 -2.2627896E-02
 -2.2062374E-02
 -6.0950093E-02 -4.7937013E-02 -3.3089694E-02 -1.6973328E-02 -2.0539756E-04
  1.6570916E-02  3.2710575E-02  4.7597237E-02  6.0657594E-02 -6.0946111E-02
 -4.7921240E-02 -3.3074111E-02 -1.6966490E-02 -2.0519931E-04  1.6566526E-02
  3.2699492E-02  4.7587842E-02  6.0654003E-02 -6.0946111E-02 -4.7921240E-02
 -3.3074111E-02 -1.6966490E-02 -2.0519918E-04  1.6566526E-02  3.2699492E-02
  4.7587842E-02  6.0654003E-02 -6.0946111E-02 -4.7921240E-02 -3.3074111E-02
 -1.6966490E-02 -2.0519905E-04  1.6566526E-02  3.2699492E-02  4.7587842E-02
  6.0654003E-02 -6.0946111E-02 -4.7921240E-02 -3.3074111E-02 -1.6966490E-02
 -2.0519891E-04  1.6566526E-02  3.2699492E-02  4.7587842E-02  6.0654003E-02
 -6.0946111E-02 -4.7921240E-02 -3.3074111E-02 -1.6966490E-02 -2.0519878E-04
  1.6566526E-02  3.2699492E-02  4.7587842E-02  6.0654003E-02 -6.0946111E-02
 -4.7921240E-02 -3.3074111E-02 -1.6966490E-02 -2.0519865E-04  1.6566526E-02
  3.2699492E-02  4.7587842E-02  6.0654003E-02 -6.0946111E-02 -4.7921240E-02
 -3.3074111E-02 -1.6966488E-02 -2.0519852E-04  1.6566526E-02  3.2699492E-02
  4.7587842E-02  6.0654007E-02 -6.0946111E-02 -4.7921240E-02 -3.3074111E-02
 -1.6966488E-02 -2.0519839E-04  1.6566526E-02  3.2699492E-02  4.7587842E-02
  6.0654007E-02 -6.0946111E-02 -4.7921240E-02 -3.3074111E-02 -1.6966488E-02
 -2.0519826E-04  1.6566526E-02  3.2699492E-02  4.7587842E-02  6.0654007E-02
 -6.0946111E-02 -4.7921240E-02 -3.3074111E-02 -1.6966488E-02 -2.0519811E-04
  1.6566528E-02  3.2699492E-02  4.7587845E-02  6.0654007E-02 -6.0950093E-02
 -4.7937013E-02 -3.3089690E-02 -1.6973326E-02 -2.0539609E-04  1.6570918E-02
  3.2710575E-02  4.7597241E-02  6.0657594E-02 -2.2061728E-02 -1.6662063E-02
 -1.1261399E-02 -5.6998068E-03 -7.1499076E-06  5.6873527E-03  1.1253551E-02
  1.6659571E-02  2.2061737E-02 -2.2059903E-02 -1.6660647E-02 -1.1260401E-02
 -5.6992364E-03 -7.0117367E-06  5.6870589E-03  1.1252829E-02  1.6658431E-02
  2.2060186E-02 -2.2059960E-02 -1.6660705E-02 -1.1260460E-02 -5.6992951E-03
 -7.0700607E-06  5.6870007E-03  1.1252770E-02  1.6658371E-02  2.2060128E-02
 -2.2060018E-02 -1.6660765E-02 -1.1260518E-02 -5.6993533E-03 -7.1283853E-06
  5.6869420E-03  1.1252712E-02  1.6658314E-02  2.2060070E-02 -2.2060078E-02
 -1.6660823E-02 -1.1260577E-02 -5.6994115E-03 -7.1867094E-06  5.6868838E-03
  1.1252654E-02  1.6658256E-02  2.2060011E-02 -2.2060135E-02 -1.6660880E-02
 -1.1260635E-02 -5.6994697E-03 -7.2450334E-06  5.6868256E-03  1.1252595E-02
  1.6658196E-02  2.2059953E-02 -2.2060193E-02 -1.6660940E-02 -1.1260693E-02
 -5.6995284E-03 -7.3033580E-06  5.6867674E-03  1.1252537E-02  1.6658138E-02
  2.2059895E-02 -2.2060253E-02 -1.6660998E-02 -1.1260752E-02 -5.6995866E-03
 -7.3616820E-06  5.6867087E-03  1.1252479E-02  1.6658081E-02  2.2059835E-02
 -2.2060310E-02 -1.6661055E-02 -1.1260809E-02 -5.6996448E-03 -7.4200061E-06
  5.6866505E-03  1.1252421E-02  1.6658021E-02  2.2059778E-02 -2.2060368E-02
 -1.6661115E-02 -1.1260868E-02 -5.6997030E-03 -7.4783306E-06  5.6865923E-03
  1.1252362E-02  1.6657963E-02  2.2059720E-02 -2.2060428E-02 -1.6661173E-02
 -1.1260927E-02 -5.6997617E-03 -7.5366547E-06  5.6865341E-03  1.1252304E-02
  1.6657906E-02  2.2059660E-02 -2.2062371E-02 -1.6662706E-02 -1.1262041E-02
 -5.7004485E-03 -7.7914665E-06  5.6867111E-03  1.1252909E-02  1.6658928E-02
  2.2061097E-02
   4.163060       4.163060       4.163060       4.163060       4.163060    
   4.163060       4.163060       4.163060       4.163060       4.172758    
   4.172758       4.172758       4.172758       4.172759       4.172758    
   4.172758       4.172758       4.172758       4.182456       4.182456    
   4.182456       4.182456       4.182456       4.182456       4.182456    
   4.182456       4.182456       4.192154       4.192154       4.192154    
   4.192155       4.192155       4.192155       4.192154       4.192154    
   4.192154       4.201852       4.201852       4.201852       4.201853    
   4.201853       4.201853       4.201852       4.201852       4.201852    
   4.211551       4.211551       4.211551       4.211551       4.211551    
   4.211551       4.211551       4.211551       4.211551       4.221249    
   4.221249       4.221249       4.221249       4.221249       4.221249    
   4.221249       4.221249       4.221249       4.230947       4.230947    
   4.230947       4.230947       4.230947       4.230947       4.230947    
   4.230947       4.230947       4.240645       4.240645       4.240645    
   4.240645       4.240645       4.240645       4.240645       4.240645    
   4.240645       4.250343       4.250343       4.250343       4.250344    
   4.250344       4.250344       4.250343       4.250343       4.250343    
   4.260041       4.260041       4.260041       4.260042       4.260042    
   4.260042       4.260041       4.260041       4.260041       4.269740    
   4.269740       4.269740       4.269740       4.269740       4.269740    
   4.269740       4.269740       4.269740       4.163060       4.163060    
   4.163060       4.163060       4.163060       4.163060       4.163060    
   4.163060       4.163060       4.172758       4.172758       4.172758    
   4.172758       4.172758       4.172758       4.172758       4.172758    
   4.172758       4.182456       4.182456       4.182456       4.182456    
   4.182456       4.182456       4.182456       4.182456       4.182456    
   4.192154       4.192154       4.192154       4.192154       4.192154    
   4.192154       4.192154       4.192154       4.192154       4.201852    
   4.201852       4.201852       4.201852       4.201853       4.201853    
   4.201852       4.201852       4.201852       4.211551       4.211551    
   4.211551       4.211551       4.211551       4.211551       4.211551    
   4.211551       4.211551       4.221249       4.221249       4.221249    
   4.221249       4.221249       4.221249       4.221249       4.221249    
   4.221249       4.230947       4.230947       4.230947       4.230947    
   4.230947       4.230947       4.230947       4.230947       4.230947    
   4.240645       4.240645       4.240645       4.240645       4.240645    
   4.240645       4.240645       4.240645       4.240645       4.250343    
   4.250343       4.250343       4.250343       4.250344       4.250343    
   4.250343       4.250343       4.250343       4.260041       4.260041    
   4.260042       4.260042       4.260042       4.260042       4.260042    
   4.260041       4.260041       4.269740       4.269740       4.269740    
   4.269740       4.269740       4.269740       4.269740       4.269740    
   4.269740    
  2.2061735E-02  2.2626599E-02  2.3750389E-02  2.4727883E-02  2.5107909E-02
  2.4729162E-02  2.3751739E-02  2.2627415E-02  2.2061734E-02  2.2060299E-02
  2.2625102E-02  2.3748828E-02  2.4726259E-02  2.5106220E-02  2.4727408E-02
  2.3749920E-02  2.2625534E-02  2.2059789E-02  2.2060359E-02  2.2625146E-02
  2.3748858E-02  2.4726273E-02  2.5106220E-02  2.4727393E-02  2.3749892E-02
  2.2625489E-02  2.2059731E-02  2.2060417E-02  2.2625189E-02  2.3748886E-02
  2.4726287E-02  2.5106220E-02  2.4727378E-02  2.3749862E-02  2.2625446E-02
  2.2059673E-02  2.2060474E-02  2.2625234E-02  2.3748916E-02  2.4726301E-02
  2.5106220E-02  2.4727365E-02  2.3749832E-02  2.2625402E-02  2.2059614E-02
  2.2060532E-02  2.2625277E-02  2.3748945E-02  2.4726316E-02  2.5106220E-02
  2.4727350E-02  2.3749804E-02  2.2625359E-02  2.2059556E-02  2.2060592E-02
  2.2625322E-02  2.3748973E-02  2.4726331E-02  2.5106220E-02  2.4727335E-02
  2.3749774E-02  2.2625314E-02  2.2059498E-02  2.2060649E-02  2.2625364E-02
  2.3749003E-02  2.4726346E-02  2.5106220E-02  2.4727320E-02  2.3749745E-02
  2.2625271E-02  2.2059439E-02  2.2060707E-02  2.2625409E-02  2.3749033E-02
  2.4726361E-02  2.5106220E-02  2.4727305E-02  2.3749717E-02  2.2625227E-02
  2.2059381E-02  2.2060767E-02  2.2625452E-02  2.3749061E-02  2.4726374E-02
  2.5106220E-02  2.4727290E-02  2.3749687E-02  2.2625184E-02  2.2059323E-02
  2.2060825E-02  2.2625495E-02  2.3749091E-02  2.4726389E-02  2.5106220E-02
  2.4727277E-02  2.3749659E-02  2.2625139E-02  2.2059264E-02  2.2062376E-02
  2.2627080E-02  2.3750709E-02  2.4728043E-02  2.5107909E-02  2.4729002E-02
  2.3751417E-02  2.2626933E-02  2.2061091E-02  6.0657591E-02  7.1369462E-02
  7.9347022E-02  8.4281310E-02  8.5990414E-02  8.4365726E-02  7.9508170E-02
  7.1604282E-02  6.0950104E-02  6.0653999E-02  7.1346834E-02  7.9310983E-02
  8.4249385E-02  8.5985757E-02  8.4343411E-02  7.9481475E-02  7.1590178E-02
  6.0946122E-02  6.0653999E-02  7.1346834E-02  7.9310983E-02  8.4249385E-02
  8.5985757E-02  8.4343411E-02  7.9481475E-02  7.1590178E-02  6.0946122E-02
  6.0653999E-02  7.1346834E-02  7.9310983E-02  8.4249385E-02  8.5985757E-02
  8.4343411E-02  7.9481475E-02  7.1590178E-02  6.0946122E-02  6.0654003E-02
  7.1346834E-02  7.9310983E-02  8.4249392E-02  8.5985757E-02  8.4343411E-02
  7.9481475E-02  7.1590178E-02  6.0946122E-02  6.0654003E-02  7.1346834E-02
  7.9310983E-02  8.4249392E-02  8.5985757E-02  8.4343411E-02  7.9481475E-02
  7.1590178E-02  6.0946122E-02  6.0654003E-02  7.1346834E-02  7.9310983E-02
  8.4249392E-02  8.5985757E-02  8.4343411E-02  7.9481475E-02  7.1590178E-02
  6.0946122E-02  6.0654003E-02  7.1346834E-02  7.9310983E-02  8.4249392E-02
  8.5985757E-02  8.4343411E-02  7.9481475E-02  7.1590178E-02  6.0946122E-02
  6.0654003E-02  7.1346834E-02  7.9310983E-02  8.4249392E-02  8.5985757E-02
  8.4343411E-02  7.9481475E-02  7.1590178E-02  6.0946122E-02  6.0654003E-02
  7.1346834E-02  7.9310983E-02  8.4249392E-02  8.5985757E-02  8.4343411E-02
  7.9481475E-02  7.1590178E-02  6.0946122E-02  6.0654003E-02  7.1346834E-02
  7.9310983E-02  8.4249392E-02  8.5985757E-02  8.4343411E-02  7.9481475E-02
  7.1590178E-02  6.0946122E-02  6.0657594E-02  7.1369462E-02  7.9347022E-02
  8.4281310E-02  8.5990414E-02  8.4365726E-02  7.9508170E-02  7.1604282E-02
  6.0950104E-02
 -2.2061728E-02 -1.6662063E-02 -1.1261400E-02 -5.6998082E-03 -7.1519589E-06
  5.6873504E-03  1.1253548E-02  1.6659567E-02  2.2061734E-02 -2.2059785E-02
 -1.6660530E-02 -1.1260286E-02 -5.6991214E-03 -6.8970817E-06  5.6871730E-03
  1.1252942E-02  1.6658543E-02  2.2060299E-02 -2.2059726E-02 -1.6660472E-02
 -1.1260227E-02 -5.6990632E-03 -6.8387480E-06  5.6872312E-03  1.1253001E-02
  1.6658602E-02  2.2060357E-02 -2.2059668E-02 -1.6660415E-02 -1.1260169E-02
 -5.6990045E-03 -6.7804149E-06  5.6872894E-03  1.1253059E-02  1.6658660E-02
  2.2060415E-02 -2.2059610E-02 -1.6660357E-02 -1.1260111E-02 -5.6989463E-03
 -6.7220817E-06  5.6873481E-03  1.1253118E-02  1.6658718E-02  2.2060474E-02
 -2.2059551E-02 -1.6660297E-02 -1.1260052E-02 -5.6988881E-03 -6.6637481E-06
  5.6874063E-03  1.1253176E-02  1.6658777E-02  2.2060532E-02 -2.2059493E-02
 -1.6660240E-02 -1.1259994E-02 -5.6988299E-03 -6.6054149E-06  5.6874645E-03
  1.1253234E-02  1.6658835E-02  2.2060590E-02 -2.2059435E-02 -1.6660182E-02
 -1.1259936E-02 -5.6987712E-03 -6.5470817E-06  5.6875232E-03  1.1253293E-02
  1.6658893E-02  2.2060649E-02 -2.2059377E-02 -1.6660122E-02 -1.1259877E-02
 -5.6987130E-03 -6.4887481E-06  5.6875814E-03  1.1253350E-02  1.6658952E-02
  2.2060707E-02 -2.2059318E-02 -1.6660064E-02 -1.1259819E-02 -5.6986548E-03
 -6.4304149E-06  5.6876396E-03  1.1253409E-02  1.6659010E-02  2.2060765E-02
 -2.2059260E-02 -1.6660007E-02 -1.1259761E-02 -5.6985961E-03 -6.3720818E-06
  5.6876978E-03  1.1253468E-02  1.6659068E-02  2.2060825E-02 -2.2061087E-02
 -1.6661422E-02 -1.1260758E-02 -5.6991666E-03 -6.5102977E-06  5.6879921E-03
  1.1254190E-02  1.6660208E-02  2.2062376E-02 -6.0950104E-02 -4.7937024E-02
 -3.3089701E-02 -1.6973337E-02 -2.0540717E-04  1.6570909E-02  3.2710567E-02
  4.7597233E-02  6.0657591E-02 -6.0946122E-02 -4.7921252E-02 -3.3074122E-02
 -1.6966499E-02 -2.0520881E-04  1.6566517E-02  3.2699484E-02  4.7587838E-02
  6.0653999E-02 -6.0946122E-02 -4.7921252E-02 -3.3074122E-02 -1.6966499E-02
 -2.0520868E-04  1.6566517E-02  3.2699484E-02  4.7587838E-02  6.0653999E-02
 -6.0946118E-02 -4.7921252E-02 -3.3074122E-02 -1.6966499E-02 -2.0520855E-04
  1.6566517E-02  3.2699484E-02  4.7587838E-02  6.0653999E-02 -6.0946118E-02
 -4.7921248E-02 -3.3074122E-02 -1.6966499E-02 -2.0520842E-04  1.6566519E-02
  3.2699484E-02  4.7587838E-02  6.0653999E-02 -6.0946118E-02 -4.7921248E-02
 -3.3074122E-02 -1.6966499E-02 -2.0520827E-04  1.6566519E-02  3.2699484E-02
  4.7587838E-02  6.0653999E-02 -6.0946118E-02 -4.7921248E-02 -3.3074122E-02
 -1.6966499E-02 -2.0520814E-04  1.6566519E-02  3.2699484E-02  4.7587838E-02
  6.0653999E-02 -6.0946118E-02 -4.7921248E-02 -3.3074122E-02 -1.6966499E-02
 -2.0520801E-04  1.6566519E-02  3.2699484E-02  4.7587838E-02  6.0653999E-02
 -6.0946118E-02 -4.7921248E-02 -3.3074118E-02 -1.6966499E-02 -2.0520788E-04
  1.6566519E-02  3.2699484E-02  4.7587838E-02  6.0653999E-02 -6.0946118E-02
 -4.7921248E-02 -3.3074118E-02 -1.6966499E-02 -2.0520775E-04  1.6566519E-02
  3.2699484E-02  4.7587838E-02  6.0653999E-02 -6.0946118E-02 -4.7921248E-02
 -3.3074118E-02 -1.6966499E-02 -2.0520762E-04  1.6566519E-02  3.2699484E-02
  4.7587838E-02  6.0653999E-02 -6.0950100E-02 -4.7937021E-02 -3.3089701E-02
 -1.6973335E-02 -2.0540570E-04  1.6570909E-02  3.2710567E-02  4.7597233E-02
  6.0657591E-02
   4.163060       4.172758       4.182456       4.192154       4.201852    
   4.211551       4.221249       4.230947       4.240645       4.250343    
   4.260041       4.269740       4.163060       4.172758       4.182456    
   4.192154       4.201852       4.211551       4.221249       4.230947    
   4.240645       4.250343       4.260041       4.269740       4.163060    
   4.172758       4.182456       4.192154       4.201852       4.211551    
   4.221249       4.230947       4.240645       4.250343       4.260042    
   4.269740       4.163060       4.172758       4.182456       4.192154    
   4.201853       4.211551       4.221249       4.230947       4.240645    
   4.250343       4.260042       4.269740       4.163060       4.172758    
   4.182456       4.192154       4.201853       4.211551       4.221249    
   4.230947       4.240645       4.250344       4.260042       4.269740    
   4.163060       4.172758       4.182456       4.192154       4.201853    
   4.211551       4.221249       4.230947       4.240645       4.250343    
   4.260042       4.269740       4.163060       4.172758       4.182456    
   4.192154       4.201852       4.211551       4.221249       4.230947    
   4.240645       4.250343       4.260042       4.269740       4.163060    
   4.172758       4.182456       4.192154       4.201852       4.211551    
   4.221249       4.230947       4.240645       4.250343       4.260041    
   4.269740       4.163060       4.172758       4.182456       4.192154    
   4.201852       4.211551       4.221249       4.230947       4.240645    
   4.250343       4.260041       4.269740       4.163060       4.172758    
   4.182456       4.192154       4.201852       4.211551       4.221249    
   4.230947       4.240645       4.250343       4.260041       4.269740    
   4.163060       4.172758       4.182456       4.192154       4.201852    
   4.211551       4.221249       4.230947       4.240645       4.250343    
   4.260041       4.269740       4.163060       4.172758       4.182456    
   4.192154       4.201852       4.211551       4.221249       4.230947    
   4.240645       4.250343       4.260041       4.269740       4.163060    
   4.172758       4.182456       4.192155       4.201853       4.211551    
   4.221249       4.230947       4.240645       4.250344       4.260042    
   4.269740       4.163060       4.172759       4.182456       4.192155    
   4.201853       4.211551       4.221249       4.230947       4.240645    
   4.250344       4.260042       4.269740       4.163060       4.172758    
   4.182456       4.192155       4.201853       4.211551       4.221249    
   4.230947       4.240645       4.250344       4.260042       4.269740    
   4.163060       4.172758       4.182456       4.192154       4.201852    
   4.211551       4.221249       4.230947       4.240645       4.250343    
   4.260041       4.269740       4.163060       4.172758       4.182456    
   4.192154       4.201852       4.211551       4.221249       4.230947    
   4.240645       4.250343       4.260041       4.269740       4.163060    
   4.172758       4.182456       4.192154       4.201852       4.211551    
   4.221249       4.230947       4.240645       4.250343       4.260041    
   4.269740    
 -6.0657602E-02 -6.0654011E-02 -6.0654011E-02 -6.0654011E-02 -6.0654011E-02
 -6.0654011E-02 -6.0654011E-02 -6.0654011E-02 -6.0654011E-02 -6.0654011E-02
 -6.0654011E-02 -6.0657602E-02 -4.7639482E-02 -4.7629338E-02 -4.7629338E-02
 -4.7629338E-02 -4.7629338E-02 -4.7629338E-02 -4.7629338E-02 -4.7629338E-02
 -4.7629338E-02 -4.7629338E-02 -4.7629338E-02 -4.7639482E-02 -3.2804966E-02
 -3.2792825E-02 -3.2792825E-02 -3.2792825E-02 -3.2792825E-02 -3.2792825E-02
 -3.2792825E-02 -3.2792825E-02 -3.2792825E-02 -3.2792825E-02 -3.2792825E-02
 -3.2804966E-02 -1.6721353E-02 -1.6716091E-02 -1.6716091E-02 -1.6716091E-02
 -1.6716091E-02 -1.6716091E-02 -1.6716091E-02 -1.6716091E-02 -1.6716091E-02
 -1.6716091E-02 -1.6716091E-02 -1.6721353E-02 -6.1756742E-09 -6.3603802E-09
 -6.3603740E-09 -6.3603740E-09 -6.3603740E-09 -6.3603740E-09 -6.3603740E-09
 -6.3603740E-09 -6.3603740E-09 -6.3603744E-09 -6.3603802E-09 -6.1756742E-09
  1.6721342E-02  1.6716078E-02  1.6716078E-02  1.6716078E-02  1.6716078E-02
  1.6716078E-02  1.6716078E-02  1.6716078E-02  1.6716078E-02  1.6716078E-02
  1.6716078E-02  1.6721342E-02  3.2804955E-02  3.2792814E-02  3.2792814E-02
  3.2792814E-02  3.2792814E-02  3.2792814E-02  3.2792814E-02  3.2792814E-02
  3.2792814E-02  3.2792814E-02  3.2792814E-02  3.2804955E-02  4.7639471E-02
  4.7629327E-02  4.7629327E-02  4.7629327E-02  4.7629327E-02  4.7629327E-02
  4.7629327E-02  4.7629327E-02  4.7629327E-02  4.7629327E-02  4.7629327E-02
  4.7639474E-02  6.0657591E-02  6.0653999E-02  6.0653999E-02  6.0653999E-02
  6.0654003E-02  6.0654003E-02  6.0654003E-02  6.0654003E-02  6.0654003E-02
  6.0654003E-02  6.0654003E-02  6.0657594E-02 -2.2061734E-02 -2.2060184E-02
 -2.2060124E-02 -2.2060066E-02 -2.2060009E-02 -2.2059949E-02 -2.2059891E-02
 -2.2059834E-02 -2.2059774E-02 -2.2059716E-02 -2.2059659E-02 -2.2061093E-02
 -1.6660141E-02 -1.6658954E-02 -1.6658895E-02 -1.6658837E-02 -1.6658779E-02
 -1.6658720E-02 -1.6658662E-02 -1.6658604E-02 -1.6658546E-02 -1.6658487E-02
 -1.6658429E-02 -1.6659500E-02 -1.1256018E-02 -1.1255200E-02 -1.1255141E-02
 -1.1255084E-02 -1.1255025E-02 -1.1254966E-02 -1.1254909E-02 -1.1254850E-02
 -1.1254792E-02 -1.1254733E-02 -1.1254675E-02 -1.1255377E-02 -5.6923949E-03
 -5.6919549E-03 -5.6918967E-03 -5.6918380E-03 -5.6917798E-03 -5.6917216E-03
 -5.6916634E-03 -5.6916047E-03 -5.6915465E-03 -5.6914883E-03 -5.6914301E-03
 -5.6917532E-03  1.0120929E-10  5.8267410E-08  1.1659606E-07  1.7492471E-07
  2.3325336E-07  2.9158201E-07  3.4991066E-07  4.0823932E-07  4.6656797E-07
  5.2489662E-07  5.8322524E-07  6.4171047E-07  5.6923949E-03  5.6920713E-03
  5.6921295E-03  5.6921877E-03  5.6922459E-03  5.6923046E-03  5.6923628E-03
  5.6924210E-03  5.6924792E-03  5.6925379E-03  5.6925961E-03  5.6930366E-03
  1.1256018E-02  1.1255316E-02  1.1255375E-02  1.1255433E-02  1.1255492E-02
  1.1255549E-02  1.1255608E-02  1.1255667E-02  1.1255724E-02  1.1255783E-02
  1.1255842E-02  1.1256659E-02  1.6660141E-02  1.6659070E-02  1.6659129E-02
  1.6659187E-02  1.6659245E-02  1.6659304E-02  1.6659362E-02  1.6659420E-02
  1.6659480E-02  1.6659537E-02  1.6659595E-02  1.6660783E-02  2.2061735E-02
  2.2060299E-02  2.2060359E-02  2.2060417E-02  2.2060474E-02  2.2060532E-02
  2.2060592E-02  2.2060649E-02  2.2060707E-02  2.2060767E-02  2.2060825E-02
  2.2062376E-02
 -6.0950093E-02 -6.0946111E-02 -6.0946111E-02 -6.0946111E-02 -6.0946111E-02
 -6.0946111E-02 -6.0946111E-02 -6.0946111E-02 -6.0946111E-02 -6.0946111E-02
 -6.0946111E-02 -6.0950093E-02 -7.1575083E-02 -7.1559891E-02 -7.1559891E-02
 -7.1559891E-02 -7.1559891E-02 -7.1559891E-02 -7.1559891E-02 -7.1559891E-02
 -7.1559891E-02 -7.1559891E-02 -7.1559891E-02 -7.1575083E-02 -7.9468049E-02
 -7.9438999E-02 -7.9438999E-02 -7.9438999E-02 -7.9438999E-02 -7.9438999E-02
 -7.9438999E-02 -7.9438999E-02 -7.9438999E-02 -7.9438999E-02 -7.9438999E-02
 -7.9468049E-02 -8.4334172E-02 -8.4308252E-02 -8.4308252E-02 -8.4308252E-02
 -8.4308252E-02 -8.4308252E-02 -8.4308252E-02 -8.4308252E-02 -8.4308252E-02
 -8.4308252E-02 -8.4308252E-02 -8.4334172E-02 -8.5994996E-02 -8.5994996E-02
 -8.5994996E-02 -8.5994996E-02 -8.5994996E-02 -8.5994996E-02 -8.5994996E-02
 -8.5994996E-02 -8.5994996E-02 -8.5994996E-02 -8.5994996E-02 -8.5994996E-02
 -8.4334172E-02 -8.4308252E-02 -8.4308252E-02 -8.4308252E-02 -8.4308252E-02
 -8.4308252E-02 -8.4308252E-02 -8.4308252E-02 -8.4308252E-02 -8.4308252E-02
 -8.4308252E-02 -8.4334172E-02 -7.9468057E-02 -7.9438999E-02 -7.9438999E-02
 -7.9438999E-02 -7.9438999E-02 -7.9438999E-02 -7.9438999E-02 -7.9438999E-02
 -7.9438999E-02 -7.9438999E-02 -7.9438999E-02 -7.9468057E-02 -7.1575090E-02
 -7.1559899E-02 -7.1559899E-02 -7.1559899E-02 -7.1559899E-02 -7.1559899E-02
 -7.1559899E-02 -7.1559899E-02 -7.1559899E-02 -7.1559899E-02 -7.1559899E-02
 -7.1575090E-02 -6.0950104E-02 -6.0946122E-02 -6.0946122E-02 -6.0946118E-02
 -6.0946118E-02 -6.0946118E-02 -6.0946118E-02 -6.0946118E-02 -6.0946118E-02
 -6.0946118E-02 -6.0946118E-02 -6.0950100E-02 -2.2061728E-02 -2.2059903E-02
 -2.2059960E-02 -2.2060018E-02 -2.2060078E-02 -2.2060135E-02 -2.2060193E-02
 -2.2060253E-02 -2.2060310E-02 -2.2060368E-02 -2.2060428E-02 -2.2062371E-02
 -2.2625288E-02 -2.2623446E-02 -2.2623491E-02 -2.2623533E-02 -2.2623578E-02
 -2.2623621E-02 -2.2623666E-02 -2.2623708E-02 -2.2623753E-02 -2.2623796E-02
 -2.2623841E-02 -2.2625769E-02 -2.3745516E-02 -2.3743661E-02 -2.3743689E-02
 -2.3743719E-02 -2.3743749E-02 -2.3743777E-02 -2.3743806E-02 -2.3743836E-02
 -2.3743864E-02 -2.3743894E-02 -2.3743924E-02 -2.3745837E-02 -2.4719542E-02
 -2.4717672E-02 -2.4717687E-02 -2.4717702E-02 -2.4717717E-02 -2.4717731E-02
 -2.4717744E-02 -2.4717759E-02 -2.4717774E-02 -2.4717789E-02 -2.4717804E-02
 -2.4719704E-02 -2.5098082E-02 -2.5096197E-02 -2.5096197E-02 -2.5096197E-02
 -2.5096197E-02 -2.5096197E-02 -2.5096197E-02 -2.5096197E-02 -2.5096197E-02
 -2.5096197E-02 -2.5096197E-02 -2.5098082E-02 -2.4719542E-02 -2.4717644E-02
 -2.4717629E-02 -2.4717614E-02 -2.4717599E-02 -2.4717584E-02 -2.4717569E-02
 -2.4717556E-02 -2.4717541E-02 -2.4717527E-02 -2.4717512E-02 -2.4719382E-02
 -2.3745516E-02 -2.3743602E-02 -2.3743574E-02 -2.3743544E-02 -2.3743514E-02
 -2.3743486E-02 -2.3743456E-02 -2.3743426E-02 -2.3743398E-02 -2.3743369E-02
 -2.3743339E-02 -2.3745196E-02 -2.2625288E-02 -2.2623358E-02 -2.2623315E-02
 -2.2623271E-02 -2.2623228E-02 -2.2623183E-02 -2.2623140E-02 -2.2623096E-02
 -2.2623053E-02 -2.2623008E-02 -2.2622965E-02 -2.2624807E-02 -2.2061728E-02
 -2.2059785E-02 -2.2059726E-02 -2.2059668E-02 -2.2059610E-02 -2.2059551E-02
 -2.2059493E-02 -2.2059435E-02 -2.2059377E-02 -2.2059318E-02 -2.2059260E-02
 -2.2061087E-02
   4.163060       4.172758       4.182456       4.192154       4.201852    
   4.211551       4.221249       4.230947       4.240645       4.250343    
   4.260041       4.269740       4.163060       4.172758       4.182456    
   4.192154       4.201852       4.211551       4.221249       4.230947    
   4.240645       4.250343       4.260041       4.269740       4.163060    
   4.172758       4.182456       4.192154       4.201852       4.211551    
   4.221249       4.230947       4.240645       4.250343       4.260041    
   4.269740       4.163060       4.172758       4.182456       4.192155    
   4.201853       4.211551       4.221249       4.230947       4.240645    
   4.250344       4.260042       4.269740       4.163060       4.172759    
   4.182456       4.192155       4.201853       4.211551       4.221249    
   4.230947       4.240645       4.250344       4.260042       4.269740    
   4.163060       4.172758       4.182456       4.192155       4.201853    
   4.211551       4.221249       4.230947       4.240645       4.250344    
   4.260042       4.269740       4.163060       4.172758       4.182456    
   4.192154       4.201852       4.211551       4.221249       4.230947    
   4.240645       4.250343       4.260041       4.269740       4.163060    
   4.172758       4.182456       4.192154       4.201852       4.211551    
   4.221249       4.230947       4.240645       4.250343       4.260041    
   4.269740       4.163060       4.172758       4.182456       4.192154    
   4.201852       4.211551       4.221249       4.230947       4.240645    
   4.250343       4.260041       4.269740       4.163060       4.172758    
   4.182456       4.192154       4.201852       4.211551       4.221249    
   4.230947       4.240645       4.250343       4.260041       4.269740    
   4.163060       4.172758       4.182456       4.192154       4.201852    
   4.211551       4.221249       4.230947       4.240645       4.250343    
   4.260041       4.269740       4.163060       4.172758       4.182456    
   4.192154       4.201852       4.211551       4.221249       4.230947    
   4.240645       4.250343       4.260042       4.269740       4.163060    
   4.172758       4.182456       4.192154       4.201853       4.211551    
   4.221249       4.230947       4.240645       4.250343       4.260042    
   4.269740       4.163060       4.172758       4.182456       4.192154    
   4.201853       4.211551       4.221249       4.230947       4.240645    
   4.250344       4.260042       4.269740       4.163060       4.172758    
   4.182456       4.192154       4.201853       4.211551       4.221249    
