           5
 -2.2061734E-02 -2.2060163E-02 -2.2060083E-02 -2.2060001E-02 -2.2059921E-02
 -2.2059841E-02 -2.2059761E-02 -2.2059681E-02 -2.2061093E-02 -1.6660141E-02
 -1.6658934E-02 -1.6658852E-02 -1.6658772E-02 -1.6658692E-02 -1.6658612E-02
 -1.6658532E-02 -1.6658451E-02 -1.6659500E-02 -1.1256018E-02 -1.1255179E-02
 -1.1255099E-02 -1.1255018E-02 -1.1254938E-02 -1.1254858E-02 -1.1254778E-02
 -1.1254698E-02 -1.1255377E-02 -5.6923949E-03 -5.6919334E-03 -5.6918534E-03
 -5.6917728E-03 -5.6916927E-03 -5.6916126E-03 -5.6915325E-03 -5.6914524E-03
 -5.6917532E-03 -7.2304683E-11  7.9966760E-08  1.6016828E-07  2.4036981E-07
  3.2057133E-07  4.0077285E-07  4.8097439E-07  5.6117591E-07  6.4153403E-07
  5.6923949E-03  5.6920932E-03  5.6921737E-03  5.6922538E-03  5.6923339E-03
  5.6924140E-03  5.6924946E-03  5.6925747E-03  5.6930366E-03  1.1256018E-02
  1.1255339E-02  1.1255419E-02  1.1255499E-02  1.1255579E-02  1.1255660E-02
  1.1255740E-02  1.1255820E-02  1.1256660E-02  1.6660141E-02  1.6659094E-02
  1.6659174E-02  1.6659254E-02  1.6659334E-02  1.6659414E-02  1.6659494E-02
  1.6659575E-02  1.6660783E-02  2.2061735E-02  2.2060324E-02  2.2060404E-02
  2.2060484E-02  2.2060564E-02  2.2060644E-02  2.2060724E-02  2.2060804E-02
  2.2062376E-02 -2.2626599E-02 -2.2624999E-02 -2.2624940E-02 -2.2624878E-02
 -2.2624819E-02 -2.2624759E-02 -2.2624699E-02 -2.2624638E-02 -2.2626117E-02
 -1.7087627E-02 -1.7086403E-02 -1.7086344E-02 -1.7086282E-02 -1.7086223E-02
 -1.7086163E-02 -1.7086104E-02 -1.7086042E-02 -1.7087147E-02 -1.1543916E-02
 -1.1543072E-02 -1.1543011E-02 -1.1542952E-02 -1.1542892E-02 -1.1542832E-02
 -1.1542772E-02 -1.1542711E-02 -1.1543435E-02 -5.8371671E-03 -5.8367136E-03
 -5.8366535E-03 -5.8365939E-03 -5.8365338E-03 -5.8364738E-03 -5.8364137E-03
 -5.8363541E-03 -5.8366875E-03 -7.3712300E-11  5.9709556E-08  1.1965101E-07
  1.7959245E-07  2.3953390E-07  2.9947535E-07  3.5941679E-07  4.1935823E-07
  4.7945349E-07  5.8371671E-03  5.8368333E-03  5.8368933E-03  5.8369529E-03
  5.8370130E-03  5.8370731E-03  5.8371332E-03  5.8371932E-03  5.8376468E-03
  1.1543916E-02  1.1543191E-02  1.1543252E-02  1.1543311E-02  1.1543372E-02
  1.1543431E-02  1.1543492E-02  1.1543551E-02  1.1544395E-02  1.7087627E-02
  1.7086523E-02  1.7086584E-02  1.7086644E-02  1.7086703E-02  1.7086763E-02
  1.7086824E-02  1.7086884E-02  1.7088110E-02  2.2626599E-02  2.2625120E-02
  2.2625180E-02  2.2625240E-02  2.2625299E-02  2.2625361E-02  2.2625420E-02
  2.2625480E-02  2.2627080E-02 -2.3750389E-02 -2.3748761E-02 -2.3748720E-02
 -2.3748681E-02 -2.3748640E-02 -2.3748599E-02 -2.3748560E-02 -2.3748519E-02
 -2.3750067E-02 -1.7937964E-02 -1.7936721E-02 -1.7936682E-02 -1.7936641E-02
 -1.7936602E-02 -1.7936561E-02 -1.7936522E-02 -1.7936481E-02 -1.7937643E-02
 -1.2116365E-02 -1.2115518E-02 -1.2115478E-02 -1.2115438E-02 -1.2115397E-02
 -1.2115357E-02 -1.2115318E-02 -1.2115278E-02 -1.2116047E-02 -6.1249328E-03
 -6.1244871E-03 -6.1244476E-03 -6.1244075E-03 -6.1243679E-03 -6.1243284E-03
 -6.1242883E-03 -6.1242487E-03 -6.1246152E-03 -1.0032700E-10  3.9426258E-08
  7.9106670E-08  1.1878709E-07  1.5846750E-07  1.9814792E-07  2.3782835E-07
  2.7750875E-07  3.1733998E-07  6.1249328E-03  6.1245658E-03  6.1246059E-03
  6.1246455E-03  6.1246851E-03  6.1247251E-03  6.1247647E-03  6.1248043E-03
  6.1252504E-03  1.2116365E-02  1.2115597E-02  1.2115637E-02  1.2115676E-02
  1.2115716E-02  1.2115756E-02  1.2115796E-02  1.2115836E-02  1.2116685E-02
  1.7937964E-02  1.7936802E-02  1.7936843E-02  1.7936882E-02  1.7936923E-02
  1.7936962E-02  1.7937003E-02  1.7937042E-02  1.7938282E-02  2.3750389E-02
  2.3748841E-02  2.3748880E-02  2.3748921E-02  2.3748960E-02  2.3749001E-02
  2.3749040E-02  2.3749081E-02  2.3750709E-02 -2.4727883E-02 -2.4726225E-02
 -2.4726205E-02 -2.4726184E-02 -2.4726164E-02 -2.4726145E-02 -2.4726124E-02
 -2.4726104E-02 -2.4727721E-02 -1.8677648E-02 -1.8676391E-02 -1.8676370E-02
 -1.8676350E-02 -1.8676329E-02 -1.8676311E-02 -1.8676290E-02 -1.8676270E-02
 -1.8677490E-02 -1.2614380E-02 -1.2613527E-02 -1.2613507E-02 -1.2613486E-02
 -1.2613467E-02 -1.2613447E-02 -1.2613427E-02 -1.2613407E-02 -1.2614221E-02
 -6.3753007E-03 -6.3748625E-03 -6.3748425E-03 -6.3748229E-03 -6.3748029E-03
 -6.3747833E-03 -6.3747633E-03 -6.3747438E-03 -6.3751428E-03 -1.2397086E-10
  1.9446231E-08  3.9165819E-08  5.8885405E-08  7.8604991E-08  9.8324584E-08
  1.1804417E-07  1.3776375E-07  1.5763113E-07  6.3753007E-03  6.3749012E-03
  6.3749212E-03  6.3749407E-03  6.3749608E-03  6.3749803E-03  6.3749999E-03
  6.3750199E-03  6.3754586E-03  1.2614380E-02  1.2613566E-02  1.2613585E-02
  1.2613606E-02  1.2613625E-02  1.2613646E-02  1.2613665E-02  1.2613685E-02
  1.2614539E-02  1.8677648E-02  1.8676430E-02  1.8676450E-02  1.8676469E-02
  1.8676490E-02  1.8676510E-02  1.8676531E-02  1.8676549E-02  1.8677808E-02
  2.4727883E-02  2.4726264E-02  2.4726285E-02  2.4726305E-02  2.4726324E-02
  2.4726344E-02  2.4726365E-02  2.4726385E-02  2.4728043E-02 -2.5107909E-02
 -2.5106221E-02 -2.5106221E-02 -2.5106221E-02 -2.5106221E-02 -2.5106221E-02
 -2.5106221E-02 -2.5106221E-02 -2.5107909E-02 -1.8965352E-02 -1.8964075E-02
 -1.8964075E-02 -1.8964075E-02 -1.8964075E-02 -1.8964075E-02 -1.8964075E-02
 -1.8964075E-02 -1.8965352E-02 -1.2808258E-02 -1.2807398E-02 -1.2807398E-02
 -1.2807398E-02 -1.2807398E-02 -1.2807399E-02 -1.2807399E-02 -1.2807399E-02
 -1.2808258E-02 -6.4728409E-03 -6.4724092E-03 -6.4724092E-03 -6.4724092E-03
 -6.4724092E-03 -6.4724092E-03 -6.4724092E-03 -6.4724092E-03 -6.4728409E-03
 -9.2986278E-11 -2.3243860E-10 -2.2699941E-10 -2.2156021E-10 -2.1612104E-10
 -2.1068185E-10 -2.0524267E-10 -1.9980349E-10 -4.9453105E-11  6.4728409E-03
  6.4724088E-03  6.4724088E-03  6.4724088E-03  6.4724088E-03  6.4724088E-03
  6.4724088E-03  6.4724088E-03  6.4728409E-03  1.2808258E-02  1.2807398E-02
  1.2807398E-02  1.2807398E-02  1.2807398E-02  1.2807398E-02  1.2807398E-02
  1.2807398E-02  1.2808258E-02  1.8965352E-02  1.8964075E-02  1.8964075E-02
  1.8964075E-02  1.8964075E-02  1.8964075E-02  1.8964075E-02  1.8964075E-02
  1.8965352E-02  2.5107909E-02  2.5106221E-02  2.5106221E-02  2.5106221E-02
  2.5106221E-02  2.5106221E-02  2.5106221E-02  2.5106221E-02  2.5107909E-02
 -2.4729161E-02 -2.4727443E-02 -2.4727464E-02 -2.4727484E-02 -2.4727505E-02
 -2.4727523E-02 -2.4727544E-02 -2.4727564E-02 -2.4729323E-02 -1.8679015E-02
 -1.8677721E-02 -1.8677739E-02 -1.8677760E-02 -1.8677780E-02 -1.8677801E-02
 -1.8677820E-02 -1.8677840E-02 -1.8679176E-02 -1.2615845E-02 -1.2614980E-02
 -1.2615000E-02 -1.2615019E-02 -1.2615040E-02 -1.2615060E-02 -1.2615079E-02
 -1.2615100E-02 -1.2616004E-02 -6.3762651E-03 -6.3758399E-03 -6.3758600E-03
 -6.3758795E-03 -6.3758995E-03 -6.3759191E-03 -6.3759391E-03 -6.3759587E-03
 -6.3764229E-03 -3.9101507E-11 -1.9889354E-08 -3.9599207E-08 -5.9309063E-08
 -7.9018918E-08 -9.8728776E-08 -1.1843863E-07 -1.3814848E-07 -1.5771613E-07
  6.3762646E-03  6.3758004E-03  6.3757803E-03  6.3757608E-03  6.3757412E-03
  6.3757212E-03  6.3757016E-03  6.3756816E-03  6.3761068E-03  1.2615845E-02
  1.2614940E-02  1.2614920E-02  1.2614900E-02  1.2614881E-02  1.2614861E-02
  1.2614841E-02  1.2614821E-02  1.2615686E-02  1.8679015E-02  1.8677680E-02
  1.8677659E-02  1.8677641E-02  1.8677620E-02  1.8677600E-02  1.8677579E-02
  1.8677561E-02  1.8678855E-02  2.4729161E-02  2.4727404E-02  2.4727384E-02
  2.4727363E-02  2.4727343E-02  2.4727324E-02  2.4727304E-02  2.4727283E-02
  2.4729000E-02 -2.3751738E-02 -2.3749990E-02 -2.3750031E-02 -2.3750070E-02
 -2.3750111E-02 -2.3750152E-02 -2.3750192E-02 -2.3750233E-02 -2.3752060E-02
 -1.7939737E-02 -1.7938424E-02 -1.7938465E-02 -1.7938504E-02 -1.7938545E-02
 -1.7938584E-02 -1.7938625E-02 -1.7938664E-02 -1.7940057E-02 -1.2118615E-02
 -1.2117745E-02 -1.2117785E-02 -1.2117825E-02 -1.2117865E-02 -1.2117905E-02
 -1.2117945E-02 -1.2117985E-02 -1.2118934E-02 -6.1265090E-03 -6.1260918E-03
 -6.1261314E-03 -6.1261710E-03 -6.1262110E-03 -6.1262506E-03 -6.1262902E-03
 -6.1263302E-03 -6.1268271E-03  2.8435556E-11 -3.9781479E-08 -7.9455447E-08
 -1.1912942E-07 -1.5880339E-07 -1.9847735E-07 -2.3815132E-07 -2.7782528E-07
 -3.1735956E-07  6.1265090E-03  6.1260122E-03  6.1259721E-03  6.1259326E-03
  6.1258930E-03  6.1258529E-03  6.1258134E-03  6.1257738E-03  6.1261915E-03
  1.2118615E-02  1.2117665E-02  1.2117625E-02  1.2117585E-02  1.2117546E-02
  1.2117506E-02  1.2117466E-02  1.2117426E-02  1.2118297E-02  1.7939737E-02
  1.7938344E-02  1.7938305E-02  1.7938264E-02  1.7938225E-02  1.7938184E-02
  1.7938145E-02  1.7938104E-02  1.7939417E-02  2.3751738E-02  2.3749910E-02
  2.3749871E-02  2.3749830E-02  2.3749791E-02  2.3749750E-02  2.3749711E-02
  2.3749670E-02  2.3751417E-02 -2.2627415E-02 -2.2625638E-02 -2.2625700E-02
 -2.2625759E-02 -2.2625819E-02 -2.2625880E-02 -2.2625940E-02 -2.2626000E-02
 -2.2627896E-02 -1.7089294E-02 -1.7087966E-02 -1.7088026E-02 -1.7088085E-02
 -1.7088147E-02 -1.7088206E-02 -1.7088266E-02 -1.7088326E-02 -1.7089775E-02
 -1.1546555E-02 -1.1545680E-02 -1.1545741E-02 -1.1545801E-02 -1.1545861E-02
 -1.1545921E-02 -1.1545981E-02 -1.1546041E-02 -1.1547036E-02 -5.8391429E-03
 -5.8387336E-03 -5.8387932E-03 -5.8388533E-03 -5.8389134E-03 -5.8389734E-03
 -5.8390331E-03 -5.8390931E-03 -5.8396226E-03  5.6759916E-11 -6.0014038E-08
 -1.1995324E-07 -1.7989244E-07 -2.3983162E-07 -2.9977085E-07 -3.5971004E-07
 -4.1964924E-07 -4.7945116E-07  5.8391429E-03  5.8386135E-03  5.8385534E-03
  5.8384934E-03  5.8384333E-03  5.8383737E-03  5.8383136E-03  5.8382535E-03
  5.8386633E-03  1.1546555E-02  1.1545560E-02  1.1545501E-02  1.1545440E-02
  1.1545381E-02  1.1545320E-02  1.1545260E-02  1.1545200E-02  1.1546075E-02
  1.7089294E-02  1.7087845E-02  1.7087786E-02  1.7087726E-02  1.7087664E-02
  1.7087605E-02  1.7087545E-02  1.7087484E-02  1.7088814E-02  2.2627415E-02
  2.2625519E-02  2.2625457E-02  2.2625398E-02  2.2625338E-02  2.2625277E-02
  2.2625217E-02  2.2625158E-02  2.2626933E-02 -2.2061734E-02 -2.2059930E-02
 -2.2060011E-02 -2.2060091E-02 -2.2060171E-02 -2.2060251E-02 -2.2060331E-02
 -2.2060411E-02 -2.2062374E-02 -1.6661482E-02 -1.6660137E-02 -1.6660219E-02
 -1.6660299E-02 -1.6660379E-02 -1.6660459E-02 -1.6660539E-02 -1.6660620E-02
 -1.6662125E-02 -1.1258894E-02 -1.1258014E-02 -1.1258096E-02 -1.1258176E-02
 -1.1258256E-02 -1.1258336E-02 -1.1258416E-02 -1.1258496E-02 -1.1259535E-02
 -5.6946892E-03 -5.6942878E-03 -5.6943679E-03 -5.6944480E-03 -5.6945281E-03
 -5.6946082E-03 -5.6946888E-03 -5.6947689E-03 -5.6953309E-03  9.7489017E-11
 -8.0231551E-08 -1.6043327E-07 -2.4063499E-07 -3.2083670E-07 -4.0103842E-07
 -4.8124014E-07 -5.6144188E-07 -6.4150885E-07  5.6946892E-03  5.6941272E-03
  5.6940471E-03  5.6939665E-03  5.6938864E-03  5.6938063E-03  5.6937262E-03
  5.6936457E-03  5.6940480E-03  1.1258894E-02  1.1257854E-02  1.1257774E-02
  1.1257694E-02  1.1257614E-02  1.1257534E-02  1.1257453E-02  1.1257373E-02
  1.1258252E-02  1.6661482E-02  1.6659977E-02  1.6659897E-02  1.6659817E-02
  1.6659737E-02  1.6659657E-02  1.6659576E-02  1.6659496E-02  1.6660841E-02
  2.2061734E-02  2.2059768E-02  2.2059688E-02  2.2059608E-02  2.2059528E-02
  2.2059448E-02  2.2059368E-02  2.2059288E-02  2.2061091E-02
 -2.2061728E-02 -2.2059925E-02 -2.2060005E-02 -2.2060085E-02 -2.2060165E-02
 -2.2060247E-02 -2.2060327E-02 -2.2060407E-02 -2.2062371E-02 -2.2625288E-02
 -2.2623464E-02 -2.2623524E-02 -2.2623586E-02 -2.2623645E-02 -2.2623705E-02
 -2.2623766E-02 -2.2623826E-02 -2.2625769E-02 -2.3745516E-02 -2.3743672E-02
 -2.3743713E-02 -2.3743752E-02 -2.3743793E-02 -2.3743834E-02 -2.3743873E-02
 -2.3743914E-02 -2.3745837E-02 -2.4719542E-02 -2.4717679E-02 -2.4717700E-02
 -2.4717718E-02 -2.4717739E-02 -2.4717759E-02 -2.4717780E-02 -2.4717798E-02
 -2.4719702E-02 -2.5098082E-02 -2.5096199E-02 -2.5096199E-02 -2.5096199E-02
 -2.5096199E-02 -2.5096199E-02 -2.5096199E-02 -2.5096199E-02 -2.5098082E-02
 -2.4719542E-02 -2.4717638E-02 -2.4717618E-02 -2.4717599E-02 -2.4717579E-02
 -2.4717558E-02 -2.4717538E-02 -2.4717519E-02 -2.4719382E-02 -2.3745516E-02
 -2.3743592E-02 -2.3743553E-02 -2.3743512E-02 -2.3743473E-02 -2.3743432E-02
 -2.3743393E-02 -2.3743352E-02 -2.3745196E-02 -2.2625288E-02 -2.2623343E-02
 -2.2623284E-02 -2.2623224E-02 -2.2623163E-02 -2.2623103E-02 -2.2623044E-02
 -2.2622984E-02 -2.2624807E-02 -2.2061728E-02 -2.2059765E-02 -2.2059685E-02
 -2.2059605E-02 -2.2059524E-02 -2.2059444E-02 -2.2059364E-02 -2.2059282E-02
 -2.2061087E-02 -1.6662063E-02 -1.6660672E-02 -1.6660752E-02 -1.6660832E-02
 -1.6660912E-02 -1.6660992E-02 -1.6661072E-02 -1.6661152E-02 -1.6662704E-02
 -1.7088031E-02 -1.7086620E-02 -1.7086679E-02 -1.7086739E-02 -1.7086798E-02
 -1.7086860E-02 -1.7086919E-02 -1.7086979E-02 -1.7088512E-02 -1.7934658E-02
 -1.7933223E-02 -1.7933264E-02 -1.7933303E-02 -1.7933344E-02 -1.7933384E-02
 -1.7933425E-02 -1.7933464E-02 -1.7934976E-02 -1.8670764E-02 -1.8669311E-02
 -1.8669331E-02 -1.8669350E-02 -1.8669371E-02 -1.8669391E-02 -1.8669412E-02
 -1.8669430E-02 -1.8670924E-02 -1.8956825E-02 -1.8955352E-02 -1.8955354E-02
 -1.8955354E-02 -1.8955354E-02 -1.8955354E-02 -1.8955354E-02 -1.8955354E-02
 -1.8956825E-02 -1.8670764E-02 -1.8669272E-02 -1.8669251E-02 -1.8669231E-02
 -1.8669210E-02 -1.8669192E-02 -1.8669171E-02 -1.8669151E-02 -1.8670604E-02
 -1.7934658E-02 -1.7933143E-02 -1.7933104E-02 -1.7933065E-02 -1.7933024E-02
 -1.7932985E-02 -1.7932944E-02 -1.7932905E-02 -1.7934337E-02 -1.7088031E-02
 -1.7086498E-02 -1.7086439E-02 -1.7086377E-02 -1.7086318E-02 -1.7086258E-02
 -1.7086199E-02 -1.7086137E-02 -1.7087551E-02 -1.6662063E-02 -1.6660510E-02
 -1.6660430E-02 -1.6660349E-02 -1.6660269E-02 -1.6660189E-02 -1.6660109E-02
 -1.6660029E-02 -1.6661422E-02 -1.1261399E-02 -1.1260425E-02 -1.1260505E-02
 -1.1260585E-02 -1.1260665E-02 -1.1260745E-02 -1.1260825E-02 -1.1260905E-02
 -1.1262041E-02 -1.1547565E-02 -1.1546571E-02 -1.1546630E-02 -1.1546690E-02
 -1.1546751E-02 -1.1546810E-02 -1.1546871E-02 -1.1546930E-02 -1.1548046E-02
 -1.2116193E-02 -1.2115178E-02 -1.2115218E-02 -1.2115258E-02 -1.2115298E-02
 -1.2115337E-02 -1.2115377E-02 -1.2115417E-02 -1.2116512E-02 -1.2610559E-02
 -1.2609524E-02 -1.2609543E-02 -1.2609564E-02 -1.2609583E-02 -1.2609604E-02
 -1.2609623E-02 -1.2609643E-02 -1.2610719E-02 -1.2802658E-02 -1.2801602E-02
 -1.2801602E-02 -1.2801602E-02 -1.2801602E-02 -1.2801602E-02 -1.2801602E-02
 -1.2801602E-02 -1.2802658E-02 -1.2610559E-02 -1.2609485E-02 -1.2609464E-02
 -1.2609445E-02 -1.2609425E-02 -1.2609405E-02 -1.2609385E-02 -1.2609365E-02
 -1.2610401E-02 -1.2116194E-02 -1.2115099E-02 -1.2115058E-02 -1.2115018E-02
 -1.2114979E-02 -1.2114939E-02 -1.2114899E-02 -1.2114859E-02 -1.2115875E-02
 -1.1547566E-02 -1.1546451E-02 -1.1546391E-02 -1.1546331E-02 -1.1546271E-02
 -1.1546210E-02 -1.1546151E-02 -1.1546091E-02 -1.1547086E-02 -1.1261400E-02
 -1.1260265E-02 -1.1260184E-02 -1.1260104E-02 -1.1260024E-02 -1.1259944E-02
 -1.1259864E-02 -1.1259783E-02 -1.1260759E-02 -5.6998068E-03 -5.6992592E-03
 -5.6993393E-03 -5.6994194E-03 -5.6995000E-03 -5.6995801E-03 -5.6996602E-03
 -5.6997403E-03 -5.7004485E-03 -5.8428645E-03 -5.8422964E-03 -5.8423565E-03
 -5.8424161E-03 -5.8424762E-03 -5.8425362E-03 -5.8425963E-03 -5.8426559E-03
 -5.8433441E-03 -6.1269179E-03 -6.1263293E-03 -6.1263693E-03 -6.1264089E-03
 -6.1264485E-03 -6.1264881E-03 -6.1265281E-03 -6.1265677E-03 -6.1272355E-03
 -6.3738241E-03 -6.3732159E-03 -6.3732355E-03 -6.3732555E-03 -6.3732751E-03
 -6.3732951E-03 -6.3733147E-03 -6.3733347E-03 -6.3739824E-03 -6.4697363E-03
 -6.4691082E-03 -6.4691082E-03 -6.4691082E-03 -6.4691082E-03 -6.4691082E-03
 -6.4691082E-03 -6.4691082E-03 -6.4697363E-03 -6.3738246E-03 -6.3731768E-03
 -6.3731573E-03 -6.3731372E-03 -6.3731177E-03 -6.3730977E-03 -6.3730781E-03
 -6.3730581E-03 -6.3736667E-03 -6.1269184E-03 -6.1262506E-03 -6.1262110E-03
 -6.1261714E-03 -6.1261314E-03 -6.1260918E-03 -6.1260522E-03 -6.1260122E-03
 -6.1266008E-03 -5.8428654E-03 -5.8421777E-03 -5.8421176E-03 -5.8420575E-03
 -5.8419975E-03 -5.8419374E-03 -5.8418778E-03 -5.8418177E-03 -5.8423858E-03
 -5.6998082E-03 -5.6991000E-03 -5.6990199E-03 -5.6989398E-03 -5.6988597E-03
 -5.6987791E-03 -5.6986990E-03 -5.6986189E-03 -5.6991670E-03 -7.1497398E-06
 -7.0336046E-06 -7.1137997E-06 -7.1939953E-06 -7.2741909E-06 -7.3543861E-06
 -7.4345817E-06 -7.5147768E-06 -7.7912946E-06 -5.6160429E-06 -5.4796419E-06
 -5.5395776E-06 -5.5995133E-06 -5.6594486E-06 -5.7193843E-06 -5.7793195E-06
 -5.8392552E-06 -6.0955208E-06 -2.1475259E-06 -1.9908589E-06 -2.0305345E-06
 -2.0702100E-06 -2.1098856E-06 -2.1495609E-06 -2.1892365E-06 -2.2289121E-06
 -2.4649255E-06  9.6859492E-07  1.1452279E-06  1.1255121E-06  1.1057963E-06
  1.0860805E-06  1.0663647E-06  1.0466488E-06  1.0269330E-06  8.1087148E-07
  2.2391530E-06  2.4355061E-06  2.4355038E-06  2.4355018E-06  2.4354995E-06
  2.4354972E-06  2.4354952E-06  2.4354929E-06  2.2391371E-06  9.6802432E-07
  1.1840993E-06  1.2038131E-06  1.2235269E-06  1.2432406E-06  1.2629544E-06
  1.2826681E-06  1.3023819E-06  1.1257340E-06 -2.1485941E-06 -1.9125478E-06
 -1.8728688E-06 -1.8331898E-06 -1.7935107E-06 -1.7538317E-06 -1.7141527E-06
 -1.6744738E-06 -1.8311642E-06 -5.6176123E-06 -5.3612935E-06 -5.3013482E-06
 -5.2414030E-06 -5.1814577E-06 -5.1215125E-06 -5.0615672E-06 -5.0016224E-06
 -5.1380543E-06 -7.1517857E-06 -6.8751983E-06 -6.7949904E-06 -6.7147826E-06
 -6.6345751E-06 -6.5543672E-06 -6.4741594E-06 -6.3939515E-06 -6.5101285E-06
  5.6873527E-03  5.6870375E-03  5.6869569E-03  5.6868768E-03  5.6867967E-03
  5.6867166E-03  5.6866361E-03  5.6865560E-03  5.6867115E-03  5.8335224E-03
  5.8332267E-03  5.8331667E-03  5.8331070E-03  5.8330470E-03  5.8329869E-03
  5.8329268E-03  5.8328672E-03  5.8330428E-03  6.1246012E-03  6.1243260E-03
  6.1242864E-03  6.1242464E-03  6.1242068E-03  6.1241672E-03  6.1241272E-03
  6.1240876E-03  6.1242832E-03  6.3778167E-03  6.3775615E-03  6.3775419E-03
  6.3775219E-03  6.3775023E-03  6.3774828E-03  6.3774628E-03  6.3774432E-03
  6.3776588E-03  6.4762998E-03  6.4760642E-03  6.4760642E-03  6.4760642E-03
  6.4760642E-03  6.4760642E-03  6.4760642E-03  6.4760642E-03  6.4762998E-03
  6.3778162E-03  6.3776006E-03  6.3776202E-03  6.3776402E-03  6.3776597E-03
  6.3776793E-03  6.3776993E-03  6.3777189E-03  6.3779741E-03  6.1245998E-03
  6.1244043E-03  6.1244438E-03  6.1244834E-03  6.1245235E-03  6.1245630E-03
  6.1246026E-03  6.1246427E-03  6.1249179E-03  5.8335206E-03  5.8333450E-03
  5.8334046E-03  5.8334647E-03  5.8335247E-03  5.8335848E-03  5.8336449E-03
  5.8337045E-03  5.8340002E-03  5.6873504E-03  5.6871953E-03  5.6872754E-03
  5.6873555E-03  5.6874356E-03  5.6875162E-03  5.6875963E-03  5.6876764E-03
  5.6879921E-03  1.1253551E-02  1.1252807E-02  1.1252727E-02  1.1252647E-02
  1.1252567E-02  1.1252487E-02  1.1252407E-02  1.1252327E-02  1.1252909E-02
  1.1542943E-02  1.1542221E-02  1.1542160E-02  1.1542100E-02  1.1542041E-02
  1.1541980E-02  1.1541921E-02  1.1541860E-02  1.1542464E-02  1.2118825E-02
  1.2118122E-02  1.2118082E-02  1.2118042E-02  1.2118002E-02  1.2117962E-02
  1.2117922E-02  1.2117883E-02  1.2118506E-02  1.2619698E-02  1.2619016E-02
  1.2618995E-02  1.2618976E-02  1.2618956E-02  1.2618936E-02  1.2618916E-02
  1.2618897E-02  1.2619539E-02  1.2814444E-02  1.2813781E-02  1.2813781E-02
  1.2813781E-02  1.2813781E-02  1.2813781E-02  1.2813781E-02  1.2813781E-02
  1.2814444E-02  1.2619697E-02  1.2619054E-02  1.2619074E-02  1.2619094E-02
  1.2619114E-02  1.2619134E-02  1.2619154E-02  1.2619173E-02  1.2619857E-02
  1.2118823E-02  1.2118200E-02  1.2118240E-02  1.2118280E-02  1.2118320E-02
  1.2118360E-02  1.2118399E-02  1.2118439E-02  1.2119142E-02  1.1542941E-02
  1.1542338E-02  1.1542398E-02  1.1542458E-02  1.1542519E-02  1.1542578E-02
  1.1542639E-02  1.1542698E-02  1.1543422E-02  1.1253548E-02  1.1252965E-02
  1.1253045E-02  1.1253125E-02  1.1253206E-02  1.1253286E-02  1.1253366E-02
  1.1253446E-02  1.1254190E-02  1.6659571E-02  1.6658409E-02  1.6658328E-02
  1.6658248E-02  1.6658168E-02  1.6658088E-02  1.6658008E-02  1.6657928E-02
  1.6658928E-02  1.7088901E-02  1.7087759E-02  1.7087700E-02  1.7087640E-02
  1.7087579E-02  1.7087519E-02  1.7087460E-02  1.7087398E-02  1.7088419E-02
  1.7943049E-02  1.7941929E-02  1.7941888E-02  1.7941849E-02  1.7941808E-02
  1.7941769E-02  1.7941728E-02  1.7941689E-02  1.7942728E-02  1.8685898E-02
  1.8684797E-02  1.8684778E-02  1.8684758E-02  1.8684737E-02  1.8684717E-02
  1.8684698E-02  1.8684678E-02  1.8685739E-02  1.8974699E-02  1.8973619E-02
  1.8973619E-02  1.8973619E-02  1.8973619E-02  1.8973619E-02  1.8973619E-02
  1.8973619E-02  1.8974699E-02  1.8685898E-02  1.8684836E-02  1.8684857E-02
  1.8684877E-02  1.8684898E-02  1.8684916E-02  1.8684937E-02  1.8684957E-02
  1.8686058E-02  1.7943049E-02  1.7942008E-02  1.7942047E-02  1.7942088E-02
  1.7942127E-02  1.7942168E-02  1.7942207E-02  1.7942248E-02  1.7943367E-02
  1.7088898E-02  1.7087877E-02  1.7087938E-02  1.7087998E-02  1.7088057E-02
  1.7088117E-02  1.7088179E-02  1.7088238E-02  1.7089378E-02  1.6659567E-02
  1.6658567E-02  1.6658647E-02  1.6658727E-02  1.6658807E-02  1.6658887E-02
  1.6658967E-02  1.6659047E-02  1.6660208E-02  2.2061737E-02  2.2060165E-02
  2.2060085E-02  2.2060005E-02  2.2059925E-02  2.2059845E-02  2.2059765E-02
  2.2059685E-02  2.2061097E-02  2.2628725E-02  2.2627173E-02  2.2627112E-02
  2.2627052E-02  2.2626992E-02  2.2626931E-02  2.2626871E-02  2.2626812E-02
  2.2628242E-02  2.3756607E-02  2.3755074E-02  2.3755034E-02  2.3754993E-02
  2.3754954E-02  2.3754913E-02  2.3754872E-02  2.3754833E-02  2.3756284E-02
  2.4737487E-02  2.4735974E-02  2.4735954E-02  2.4735935E-02  2.4735915E-02
  2.4735894E-02  2.4735874E-02  2.4735855E-02  2.4737326E-02  2.5118809E-02
  2.5117317E-02  2.5117317E-02  2.5117317E-02  2.5117317E-02  2.5117317E-02
  2.5117317E-02  2.5117317E-02  2.5118809E-02  2.4737485E-02  2.4736013E-02
  2.4736034E-02  2.4736054E-02  2.4736073E-02  2.4736093E-02  2.4736114E-02
  2.4736134E-02  2.4737645E-02  2.3756605E-02  2.3755152E-02  2.3755193E-02
  2.3755232E-02  2.3755273E-02  2.3755312E-02  2.3755353E-02  2.3755392E-02
  2.3756925E-02  2.2628721E-02  2.2627290E-02  2.2627350E-02  2.2627410E-02
  2.2627469E-02  2.2627531E-02  2.2627590E-02  2.2627650E-02  2.2629203E-02
  2.2061734E-02  2.2060322E-02  2.2060402E-02  2.2060482E-02  2.2060562E-02
  2.2060642E-02  2.2060722E-02  2.2060802E-02  2.2062376E-02
   4.163060       4.163060       4.163060       4.163060       4.163060    
   4.163060       4.163060       4.163060       4.163060       4.176395    
   4.176395       4.176395       4.176395       4.176395       4.176395    
   4.176395       4.176395       4.176395       4.189730       4.189730    
   4.189730       4.189730       4.189730       4.189730       4.189730    
   4.189730       4.189730       4.203065       4.203065       4.203065    
   4.203065       4.203065       4.203065       4.203065       4.203065    
   4.203065       4.216400       4.216400       4.216400       4.216400    
   4.216400       4.216400       4.216400       4.216400       4.216400    
   4.229735       4.229735       4.229735       4.229735       4.229735    
   4.229735       4.229735       4.229735       4.229735       4.243070    
   4.243070       4.243070       4.243070       4.243070       4.243070    
   4.243070       4.243070       4.243070       4.256405       4.256405    
   4.256405       4.256405       4.256405       4.256405       4.256405    
   4.256405       4.256405       4.269740       4.269740       4.269740    
   4.269740       4.269740       4.269740       4.269740       4.269740    
   4.269740       4.163060       4.163060       4.163060       4.163060    
   4.163060       4.163060       4.163060       4.163060       4.163060    
   4.176395       4.176395       4.176395       4.176395       4.176395    
   4.176395       4.176395       4.176395       4.176395       4.189730    
   4.189730       4.189730       4.189730       4.189730       4.189730    
   4.189730       4.189730       4.189730       4.203065       4.203065    
   4.203065       4.203065       4.203065       4.203065       4.203065    
   4.203065       4.203065       4.216400       4.216400       4.216400    
   4.216400       4.216400       4.216400       4.216400       4.216400    
   4.216400       4.229735       4.229735       4.229735       4.229735    
   4.229735       4.229735       4.229735       4.229735       4.229735    
   4.243070       4.243070       4.243070       4.243070       4.243070    
   4.243070       4.243070       4.243070       4.243070       4.256405    
   4.256405       4.256405       4.256405       4.256405       4.256405    
   4.256405       4.256405       4.256405       4.269740       4.269740    
   4.269740       4.269740       4.269740       4.269740       4.269740    
   4.269740       4.269740       4.163060       4.163060       4.163060    
   4.163060       4.163060       4.163060       4.163060       4.163060    
   4.163060       4.176395       4.176395       4.176395       4.176395    
   4.176395       4.176395       4.176395       4.176395       4.176395    
   4.189730       4.189730       4.189730       4.189730       4.189730    
   4.189730       4.189730       4.189730       4.189730       4.203065    
   4.203065       4.203065       4.203065       4.203065       4.203065    
   4.203065       4.203065       4.203065       4.216400       4.216400    
   4.216400       4.216400       4.216400       4.216400       4.216400    
   4.216400       4.216400       4.229735       4.229735       4.229735    
   4.229735       4.229735       4.229735       4.229735       4.229735    
   4.229735       4.243070       4.243070       4.243070       4.243070    
   4.243070       4.243070       4.243070       4.243070       4.243070    
   4.256405       4.256405       4.256405       4.256405       4.256405    
   4.256405       4.256405       4.256405       4.256405       4.269740    
   4.269740       4.269740       4.269740       4.269740       4.269740    
   4.269740       4.269740       4.269740       4.163060       4.163060    
   4.163060       4.163060       4.163060       4.163060       4.163060    
   4.163060       4.163060       4.176395       4.176395       4.176395    
   4.176395       4.176395       4.176395       4.176395       4.176395    
   4.176395       4.189730       4.189730       4.189730       4.189730    
   4.189730       4.189730       4.189730       4.189730       4.189730    
   4.203065       4.203065       4.203065       4.203065       4.203065    
   4.203065       4.203065       4.203065       4.203065       4.216400    
   4.216400       4.216400       4.216400       4.216400       4.216400    
   4.216400       4.216400       4.216400       4.229735       4.229735    
   4.229735       4.229735       4.229735       4.229735       4.229735    
   4.229735       4.229735       4.243070       4.243070       4.243070    
   4.243070       4.243070       4.243070       4.243070       4.243070    
   4.243070       4.256405       4.256405       4.256405       4.256405    
   4.256405       4.256405       4.256405       4.256405       4.256405    
   4.269740       4.269740       4.269740       4.269740       4.269740    
   4.269740       4.269740       4.269740       4.269740       4.163060    
   4.163060       4.163060       4.163060       4.163060       4.163060    
   4.163060       4.163060       4.163060       4.176395       4.176395    
   4.176395       4.176395       4.176395       4.176395       4.176395    
   4.176395       4.176395       4.189730       4.189730       4.189730    
   4.189730       4.189730       4.189730       4.189730       4.189730    
   4.189730       4.203065       4.203065       4.203065       4.203065    
   4.203065       4.203065       4.203065       4.203065       4.203065    
   4.216400       4.216400       4.216400       4.216400       4.216400    
   4.216400       4.216400       4.216400       4.216400       4.229735    
   4.229735       4.229735       4.229735       4.229735       4.229735    
   4.229735       4.229735       4.229735       4.243070       4.243070    
   4.243070       4.243070       4.243070       4.243070       4.243070    
   4.243070       4.243070       4.256405       4.256405       4.256405    
   4.256405       4.256405       4.256405       4.256405       4.256405    
   4.256405       4.269740       4.269740       4.269740       4.269740    
   4.269740       4.269740       4.269740       4.269740       4.269740    
   4.163060       4.163060       4.163060       4.163060       4.163060    
   4.163060       4.163060       4.163060       4.163060       4.176395    
   4.176395       4.176395       4.176395       4.176395       4.176395    
   4.176395       4.176395       4.176395       4.189730       4.189730    
   4.189730       4.189730       4.189730       4.189730       4.189730    
   4.189730       4.189730       4.203065       4.203065       4.203065    
   4.203065       4.203065       4.203065       4.203065       4.203065    
   4.203065       4.216400       4.216400       4.216400       4.216400    
   4.216400       4.216400       4.216400       4.216400       4.216400    
   4.229735       4.229735       4.229735       4.229735       4.229735    
   4.229735       4.229735       4.229735       4.229735       4.243070    
   4.243070       4.243070       4.243070       4.243070       4.243070    
   4.243070       4.243070       4.243070       4.256405       4.256405    
   4.256405       4.256405       4.256405       4.256405       4.256405    
   4.256405       4.256405       4.269740       4.269740       4.269740    
   4.269740       4.269740       4.269740       4.269740       4.269740    
   4.269740       4.163060       4.163060       4.163060       4.163060    
   4.163060       4.163060       4.163060       4.163060       4.163060    
   4.176395       4.176395       4.176395       4.176395       4.176395    
   4.176395       4.176395       4.176395       4.176395       4.189730    
   4.189730       4.189730       4.189730       4.189730       4.189730    
   4.189730       4.189730       4.189730       4.203065       4.203065    
   4.203065       4.203065       4.203065       4.203065       4.203065    
   4.203065       4.203065       4.216400       4.216400       4.216400    
   4.216400       4.216400       4.216400       4.216400       4.216400    
   4.216400       4.229735       4.229735       4.229735       4.229735    
   4.229735       4.229735       4.229735       4.229735       4.229735    
   4.243070       4.243070       4.243070       4.243070       4.243070    
   4.243070       4.243070       4.243070       4.243070       4.256405    
   4.256405       4.256405       4.256405       4.256405       4.256405    
   4.256405       4.256405       4.256405       4.269740       4.269740    
   4.269740       4.269740       4.269740       4.269740       4.269740    
   4.269740       4.269740       4.163060       4.163060       4.163060    
   4.163060       4.163060       4.163060       4.163060       4.163060    
   4.163060       4.176395       4.176395       4.176395       4.176395    
   4.176395       4.176395       4.176395       4.176395       4.176395    
   4.189730       4.189730       4.189730       4.189730       4.189730    
   4.189730       4.189730       4.189730       4.189730       4.203065    
   4.203065       4.203065       4.203065       4.203065       4.203065    
   4.203065       4.203065       4.203065       4.216400       4.216400    
   4.216400       4.216400       4.216400       4.216400       4.216400    
   4.216400       4.216400       4.229735       4.229735       4.229735    
   4.229735       4.229735       4.229735       4.229735       4.229735    
   4.229735       4.243070       4.243070       4.243070       4.243070    
   4.243070       4.243070       4.243070       4.243070       4.243070    
   4.256405       4.256405       4.256405       4.256405       4.256405    
   4.256405       4.256405       4.256405       4.256405       4.269740    
   4.269740       4.269740       4.269740       4.269740       4.269740    
   4.269740       4.269740       4.269740       4.163060       4.163060    
   4.163060       4.163060       4.163060       4.163060       4.163060    
   4.163060       4.163060       4.176395       4.176395       4.176395    
   4.176395       4.176395       4.176395       4.176395       4.176395    
   4.176395       4.189730       4.189730       4.189730       4.189730    
   4.189730       4.189730       4.189730       4.189730       4.189730    
   4.203065       4.203065       4.203065       4.203065       4.203065    
   4.203065       4.203065       4.203065       4.203065       4.216400    
   4.216400       4.216400       4.216400       4.216400       4.216400    
   4.216400       4.216400       4.216400       4.229735       4.229735    
   4.229735       4.229735       4.229735       4.229735       4.229735    
   4.229735       4.229735       4.243070       4.243070       4.243070    
   4.243070       4.243070       4.243070       4.243070       4.243070    
   4.243070       4.256405       4.256405       4.256405       4.256405    
   4.256405       4.256405       4.256405       4.256405       4.256405    
   4.269740       4.269740       4.269740       4.269740       4.269740    
   4.269740       4.269740       4.269740       4.269740    
 -6.0657606E-02 -7.1369477E-02 -7.9347029E-02 -8.4281318E-02 -8.5990414E-02
 -8.4365726E-02 -7.9508170E-02 -7.1604282E-02 -6.0950104E-02 -6.0654018E-02
 -7.1346849E-02 -7.9310991E-02 -8.4249385E-02 -8.5985757E-02 -8.4343404E-02
 -7.9481475E-02 -7.1590178E-02 -6.0946126E-02 -6.0654018E-02 -7.1346849E-02
 -7.9310991E-02 -8.4249385E-02 -8.5985757E-02 -8.4343404E-02 -7.9481475E-02
 -7.1590178E-02 -6.0946126E-02 -6.0654018E-02 -7.1346849E-02 -7.9310991E-02
 -8.4249385E-02 -8.5985757E-02 -8.4343404E-02 -7.9481475E-02 -7.1590178E-02
 -6.0946126E-02 -6.0654018E-02 -7.1346849E-02 -7.9310991E-02 -8.4249385E-02
 -8.5985757E-02 -8.4343404E-02 -7.9481475E-02 -7.1590178E-02 -6.0946126E-02
 -6.0654018E-02 -7.1346849E-02 -7.9310991E-02 -8.4249385E-02 -8.5985757E-02
 -8.4343404E-02 -7.9481475E-02 -7.1590178E-02 -6.0946126E-02 -6.0654018E-02
 -7.1346849E-02 -7.9310991E-02 -8.4249385E-02 -8.5985757E-02 -8.4343404E-02
 -7.9481475E-02 -7.1590178E-02 -6.0946126E-02 -6.0654018E-02 -7.1346849E-02
 -7.9310991E-02 -8.4249385E-02 -8.5985757E-02 -8.4343396E-02 -7.9481475E-02
 -7.1590178E-02 -6.0946126E-02 -6.0657606E-02 -7.1369477E-02 -7.9347029E-02
 -8.4281318E-02 -8.5990414E-02 -8.4365726E-02 -7.9508170E-02 -7.1604282E-02
 -6.0950104E-02 -5.8237642E-02 -6.8313293E-02 -7.5861126E-02 -8.0547318E-02
 -8.2173079E-02 -8.0626518E-02 -7.6012246E-02 -6.8533428E-02 -5.8511805E-02
 -5.8234181E-02 -6.8291984E-02 -7.5827233E-02 -8.0517285E-02 -8.2168609E-02
 -8.0605477E-02 -7.5987108E-02 -6.8520099E-02 -5.8507960E-02 -5.8234178E-02
 -6.8291984E-02 -7.5827233E-02 -8.0517285E-02 -8.2168609E-02 -8.0605477E-02
 -7.5987116E-02 -6.8520106E-02 -5.8507964E-02 -5.8234174E-02 -6.8291977E-02
 -7.5827233E-02 -8.0517277E-02 -8.2168609E-02 -8.0605485E-02 -7.5987116E-02
 -6.8520106E-02 -5.8507971E-02 -5.8234166E-02 -6.8291977E-02 -7.5827226E-02
 -8.0517277E-02 -8.2168609E-02 -8.0605485E-02 -7.5987116E-02 -6.8520114E-02
 -5.8507975E-02 -5.8234163E-02 -6.8291970E-02 -7.5827226E-02 -8.0517277E-02
 -8.2168609E-02 -8.0605485E-02 -7.5987123E-02 -6.8520114E-02 -5.8507979E-02
 -5.8234159E-02 -6.8291970E-02 -7.5827226E-02 -8.0517277E-02 -8.2168609E-02
 -8.0605485E-02 -7.5987123E-02 -6.8520121E-02 -5.8507986E-02 -5.8234151E-02
 -6.8291962E-02 -7.5827219E-02 -8.0517277E-02 -8.2168609E-02 -8.0605485E-02
 -7.5987123E-02 -6.8520121E-02 -5.8507990E-02 -5.8237605E-02 -6.8313263E-02
 -7.5861104E-02 -8.0547310E-02 -8.2173079E-02 -8.0626525E-02 -7.6012261E-02
 -6.8533458E-02 -5.8511842E-02 -5.5802245E-02 -6.5237619E-02 -7.2352976E-02
 -7.6789498E-02 -7.8331396E-02 -7.6863445E-02 -7.2494015E-02 -6.5442994E-02
 -5.6057949E-02 -5.5798911E-02 -6.5217637E-02 -7.2321258E-02 -7.6761372E-02
 -7.8327112E-02 -7.6843716E-02 -7.2470456E-02 -6.5430440E-02 -5.6054242E-02
 -5.5798899E-02 -6.5217629E-02 -7.2321258E-02 -7.6761372E-02 -7.8327112E-02
 -7.6843716E-02 -7.2470456E-02 -6.5430447E-02 -5.6054253E-02 -5.5798892E-02
 -6.5217622E-02 -7.2321251E-02 -7.6761365E-02 -7.8327112E-02 -7.6843716E-02
 -7.2470464E-02 -6.5430455E-02 -5.6054261E-02 -5.5798881E-02 -6.5217614E-02
 -7.2321244E-02 -7.6761365E-02 -7.8327112E-02 -7.6843724E-02 -7.2470471E-02
 -6.5430462E-02 -5.6054272E-02 -5.5798870E-02 -6.5217607E-02 -7.2321244E-02
 -7.6761365E-02 -7.8327112E-02 -7.6843724E-02 -7.2470471E-02 -6.5430470E-02
 -5.6054283E-02 -5.5798862E-02 -6.5217599E-02 -7.2321236E-02 -7.6761357E-02
 -7.8327112E-02 -7.6843724E-02 -7.2470479E-02 -6.5430477E-02 -5.6054290E-02
 -5.5798851E-02 -6.5217592E-02 -7.2321229E-02 -7.6761357E-02 -7.8327112E-02
 -7.6843731E-02 -7.2470486E-02 -6.5430485E-02 -5.6054302E-02 -5.5802163E-02
 -6.5237559E-02 -7.2352938E-02 -7.6789476E-02 -7.8331396E-02 -7.6863468E-02
 -7.2494052E-02 -6.5443054E-02 -5.6058027E-02 -5.3339828E-02 -6.2127825E-02
 -6.8805911E-02 -7.2989985E-02 -7.4447088E-02 -7.3058635E-02 -6.8936750E-02
 -6.2318265E-02 -5.3576868E-02 -5.3336624E-02 -6.2109184E-02 -6.8776391E-02
 -7.2963797E-02 -7.4442998E-02 -7.3040217E-02 -6.8914786E-02 -6.2306501E-02
 -5.3573303E-02 -5.3336605E-02 -6.2109172E-02 -6.8776384E-02 -7.2963789E-02
 -7.4442998E-02 -7.3040217E-02 -6.8914793E-02 -6.2306512E-02 -5.3573318E-02
 -5.3336591E-02 -6.2109161E-02 -6.8776377E-02 -7.2963789E-02 -7.4442998E-02
 -7.3040225E-02 -6.8914801E-02 -6.2306523E-02 -5.3573333E-02 -5.3336576E-02
 -6.2109150E-02 -6.8776369E-02 -7.2963782E-02 -7.4442998E-02 -7.3040225E-02
 -6.8914808E-02 -6.2306534E-02 -5.3573348E-02 -5.3336561E-02 -6.2109139E-02
 -6.8776362E-02 -7.2963782E-02 -7.4442998E-02 -7.3040232E-02 -6.8914816E-02
 -6.2306546E-02 -5.3573363E-02 -5.3336546E-02 -6.2109128E-02 -6.8776354E-02
 -7.2963774E-02 -7.4442998E-02 -7.3040232E-02 -6.8914823E-02 -6.2306557E-02
 -5.3573377E-02 -5.3336531E-02 -6.2109116E-02 -6.8776347E-02 -7.2963774E-02
 -7.4442998E-02 -7.3040240E-02 -6.8914831E-02 -6.2306572E-02 -5.3573392E-02
 -5.3339705E-02 -6.2127735E-02 -6.8805851E-02 -7.2989956E-02 -7.4447088E-02
 -7.3058665E-02 -6.8936817E-02 -6.2318359E-02 -5.3576991E-02 -5.0823376E-02
 -5.8949791E-02 -6.5181009E-02 -6.9107100E-02 -7.0477553E-02 -6.9170333E-02
 -6.5301433E-02 -5.9124976E-02 -5.1041346E-02 -5.0820302E-02 -5.8932520E-02
 -6.5153733E-02 -6.9082886E-02 -7.0473656E-02 -6.9153257E-02 -6.5281093E-02
 -5.9114013E-02 -5.1037923E-02 -5.0820284E-02 -5.8932506E-02 -6.5153725E-02
 -6.9082879E-02 -7.0473656E-02 -6.9153257E-02 -6.5281101E-02 -5.9114031E-02
 -5.1037941E-02 -5.0820261E-02 -5.8932491E-02 -6.5153711E-02 -6.9082871E-02
 -7.0473656E-02 -6.9153264E-02 -6.5281115E-02 -5.9114046E-02 -5.1037963E-02
 -5.0820243E-02 -5.8932476E-02 -6.5153703E-02 -6.9082871E-02 -7.0473656E-02
 -6.9153272E-02 -6.5281123E-02 -5.9114061E-02 -5.1037982E-02 -5.0820224E-02
 -5.8932461E-02 -6.5153696E-02 -6.9082864E-02 -7.0473656E-02 -6.9153272E-02
 -6.5281130E-02 -5.9114076E-02 -5.1038004E-02 -5.0820202E-02 -5.8932446E-02
 -6.5153681E-02 -6.9082856E-02 -7.0473656E-02 -6.9153279E-02 -6.5281145E-02
 -5.9114091E-02 -5.1038023E-02 -5.0820183E-02 -5.8932431E-02 -6.5153673E-02
 -6.9082856E-02 -7.0473656E-02 -6.9153287E-02 -6.5281153E-02 -5.9114106E-02
 -5.1038045E-02 -5.0823215E-02 -5.8949668E-02 -6.5180928E-02 -6.9107063E-02
 -7.0477553E-02 -6.9170371E-02 -6.5301515E-02 -5.9125099E-02 -5.1041510E-02
 -4.8206575E-02 -5.5645023E-02 -6.1411556E-02 -6.5069377E-02 -6.6349715E-02
 -6.5126970E-02 -6.1521146E-02 -5.5804342E-02 -4.8404716E-02 -4.8203640E-02
 -5.5629179E-02 -6.1386615E-02 -6.5047212E-02 -6.6346020E-02 -6.5111294E-02
 -6.1502498E-02 -5.5794217E-02 -4.8401438E-02 -4.8203614E-02 -5.5629160E-02
 -6.1386600E-02 -6.5047204E-02 -6.6346020E-02 -6.5111302E-02 -6.1502513E-02
 -5.5794239E-02 -4.8401464E-02 -4.8203588E-02 -5.5629142E-02 -6.1386589E-02
 -6.5047197E-02 -6.6346020E-02 -6.5111302E-02 -6.1502524E-02 -5.5794258E-02
 -4.8401490E-02 -4.8203561E-02 -5.5629119E-02 -6.1386574E-02 -6.5047197E-02
 -6.6346020E-02 -6.5111309E-02 -6.1502535E-02 -5.5794276E-02 -4.8401516E-02
 -4.8203535E-02 -5.5629101E-02 -6.1386563E-02 -6.5047190E-02 -6.6346020E-02
 -6.5111317E-02 -6.1502550E-02 -5.5794295E-02 -4.8401542E-02 -4.8203509E-02
 -5.5629082E-02 -6.1386548E-02 -6.5047182E-02 -6.6346020E-02 -6.5111324E-02
 -6.1502561E-02 -5.5794314E-02 -4.8401568E-02 -4.8203483E-02 -5.5629063E-02
 -6.1386537E-02 -6.5047175E-02 -6.6346020E-02 -6.5111332E-02 -6.1502576E-02
 -5.5794336E-02 -4.8401594E-02 -4.8206370E-02 -5.5644866E-02 -6.1411452E-02
 -6.5069325E-02 -6.6349715E-02 -6.5127023E-02 -6.1521251E-02 -5.5804498E-02
 -4.8404921E-02 -4.5408376E-02 -5.2111164E-02 -5.7380799E-02 -6.0751755E-02
 -6.1935738E-02 -6.0803320E-02 -5.7478808E-02 -5.2253522E-02 -4.5585308E-02
 -4.5405585E-02 -5.2096844E-02 -5.7358351E-02 -6.0731784E-02 -6.1932255E-02
 -6.0789134E-02 -5.7461966E-02 -5.2244291E-02 -4.5582190E-02 -4.5405556E-02
 -5.2096821E-02 -5.7358336E-02 -6.0731776E-02 -6.1932255E-02 -6.0789146E-02
 -5.7461981E-02 -5.2244313E-02 -4.5582220E-02 -4.5405522E-02 -5.2096799E-02
 -5.7358321E-02 -6.0731769E-02 -6.1932255E-02 -6.0789153E-02 -5.7461996E-02
 -5.2244335E-02 -4.5582253E-02 -4.5405492E-02 -5.2096773E-02 -5.7358306E-02
 -6.0731761E-02 -6.1932255E-02 -6.0789160E-02 -5.7462014E-02 -5.2244361E-02
 -4.5582283E-02 -4.5405459E-02 -5.2096751E-02 -5.7358287E-02 -6.0731754E-02
 -6.1932255E-02 -6.0789168E-02 -5.7462029E-02 -5.2244384E-02 -4.5582317E-02
 -4.5405429E-02 -5.2096728E-02 -5.7358272E-02 -6.0731746E-02 -6.1932255E-02
 -6.0789175E-02 -5.7462044E-02 -5.2244406E-02 -4.5582347E-02 -4.5405395E-02
 -5.2096702E-02 -5.7358257E-02 -6.0731739E-02 -6.1932255E-02 -6.0789183E-02
 -5.7462059E-02 -5.2244432E-02 -4.5582380E-02 -4.5408122E-02 -5.2110974E-02
 -5.7380673E-02 -6.0751691E-02 -6.1935738E-02 -6.0803384E-02 -5.7478935E-02
 -5.2253712E-02 -4.5585562E-02 -4.2135447E-02 -4.7977768E-02 -5.2666202E-02
 -5.5701625E-02 -5.6772899E-02 -5.5746138E-02 -5.2750662E-02 -4.8100282E-02
 -4.2287573E-02 -4.2132825E-02 -4.7965232E-02 -5.2646674E-02 -5.5684220E-02
 -5.6769669E-02 -5.5733703E-02 -5.2735936E-02 -4.8092097E-02 -4.2284641E-02
 -4.2132787E-02 -4.7965202E-02 -5.2646656E-02 -5.5684209E-02 -5.6769669E-02
 -5.5733711E-02 -5.2735955E-02 -4.8092127E-02 -4.2284679E-02 -4.2132750E-02
 -4.7965176E-02 -5.2646637E-02 -5.5684201E-02 -5.6769669E-02 -5.5733722E-02
 -5.2735973E-02 -4.8092153E-02 -4.2284716E-02 -4.2132713E-02 -4.7965147E-02
 -5.2646618E-02 -5.5684190E-02 -5.6769669E-02 -5.5733733E-02 -5.2735992E-02
 -4.8092183E-02 -4.2284753E-02 -4.2132672E-02 -4.7965117E-02 -5.2646600E-02
 -5.5684183E-02 -5.6769669E-02 -5.5733740E-02 -5.2736014E-02 -4.8092213E-02
 -4.2284794E-02 -4.2132635E-02 -4.7965087E-02 -5.2646577E-02 -5.5684172E-02
 -5.6769669E-02 -5.5733752E-02 -5.2736033E-02 -4.8092239E-02 -4.2284831E-02
 -4.2132597E-02 -4.7965061E-02 -5.2646559E-02 -5.5684164E-02 -5.6769669E-02
 -5.5733759E-02 -5.2736051E-02 -4.8092268E-02 -4.2284869E-02 -4.2135138E-02
 -4.7977537E-02 -5.2666049E-02 -5.5701546E-02 -5.6772899E-02 -5.5746216E-02
 -5.2750815E-02 -4.8100512E-02 -4.2287882E-02 -2.2061734E-02 -2.2626599E-02
 -2.3750389E-02 -2.4727883E-02 -2.5107909E-02 -2.4729161E-02 -2.3751738E-02
 -2.2627415E-02 -2.2061734E-02 -2.2060163E-02 -2.2624999E-02 -2.3748761E-02
 -2.4726225E-02 -2.5106221E-02 -2.4727443E-02 -2.3749990E-02 -2.2625638E-02
 -2.2059930E-02 -2.2060083E-02 -2.2624940E-02 -2.3748720E-02 -2.4726205E-02
 -2.5106221E-02 -2.4727464E-02 -2.3750031E-02 -2.2625700E-02 -2.2060011E-02
 -2.2060001E-02 -2.2624878E-02 -2.3748681E-02 -2.4726184E-02 -2.5106221E-02
 -2.4727484E-02 -2.3750070E-02 -2.2625759E-02 -2.2060091E-02 -2.2059921E-02
 -2.2624819E-02 -2.3748640E-02 -2.4726164E-02 -2.5106221E-02 -2.4727505E-02
 -2.3750111E-02 -2.2625819E-02 -2.2060171E-02 -2.2059841E-02 -2.2624759E-02
 -2.3748599E-02 -2.4726145E-02 -2.5106221E-02 -2.4727523E-02 -2.3750152E-02
 -2.2625880E-02 -2.2060251E-02 -2.2059761E-02 -2.2624699E-02 -2.3748560E-02
 -2.4726124E-02 -2.5106221E-02 -2.4727544E-02 -2.3750192E-02 -2.2625940E-02
 -2.2060331E-02 -2.2059681E-02 -2.2624638E-02 -2.3748519E-02 -2.4726104E-02
 -2.5106221E-02 -2.4727564E-02 -2.3750233E-02 -2.2626000E-02 -2.2060411E-02
 -2.2061093E-02 -2.2626117E-02 -2.3750067E-02 -2.4727721E-02 -2.5107909E-02
 -2.4729323E-02 -2.3752060E-02 -2.2627896E-02 -2.2062374E-02
 -6.0950097E-02 -4.7937017E-02 -3.3089694E-02 -1.6973328E-02 -2.0539771E-04
  1.6570918E-02  3.2710575E-02  4.7597241E-02  6.0657598E-02 -6.0946118E-02
 -4.7921244E-02 -3.3074114E-02 -1.6966490E-02 -2.0519957E-04  1.6566526E-02
  3.2699496E-02  4.7587845E-02  6.0654011E-02 -6.0946118E-02 -4.7921244E-02
 -3.3074114E-02 -1.6966490E-02 -2.0519939E-04  1.6566526E-02  3.2699496E-02
  4.7587845E-02  6.0654011E-02 -6.0946118E-02 -4.7921244E-02 -3.3074114E-02
 -1.6966490E-02 -2.0519921E-04  1.6566526E-02  3.2699496E-02  4.7587845E-02
  6.0654011E-02 -6.0946118E-02 -4.7921244E-02 -3.3074111E-02 -1.6966488E-02
 -2.0519903E-04  1.6566526E-02  3.2699496E-02  4.7587845E-02  6.0654011E-02
 -6.0946118E-02 -4.7921244E-02 -3.3074111E-02 -1.6966488E-02 -2.0519884E-04
  1.6566526E-02  3.2699496E-02  4.7587845E-02  6.0654011E-02 -6.0946118E-02
 -4.7921244E-02 -3.3074111E-02 -1.6966488E-02 -2.0519865E-04  1.6566526E-02
  3.2699496E-02  4.7587845E-02  6.0654011E-02 -6.0946118E-02 -4.7921244E-02
 -3.3074111E-02 -1.6966488E-02 -2.0519848E-04  1.6566526E-02  3.2699496E-02
  4.7587845E-02  6.0654014E-02 -6.0950097E-02 -4.7937017E-02 -3.3089694E-02
 -1.6973326E-02 -2.0539625E-04  1.6570918E-02  3.2710575E-02  4.7597244E-02
  6.0657602E-02 -5.8511797E-02 -4.5976076E-02 -3.1721059E-02 -1.6266478E-02
 -1.9296756E-04  1.5888518E-02  3.1365220E-02  4.5657448E-02  5.8237638E-02
 -5.8507957E-02 -4.5961205E-02 -3.1706396E-02 -1.6260033E-02 -1.9277456E-04
  1.5884381E-02  3.1354785E-02  4.5648571E-02  5.8234178E-02 -5.8507960E-02
 -4.5961212E-02 -3.1706400E-02 -1.6260039E-02 -1.9277942E-04  1.5884377E-02
  3.1354781E-02  4.5648564E-02  5.8234174E-02 -5.8507964E-02 -4.5961216E-02
 -3.1706404E-02 -1.6260045E-02 -1.9278428E-04  1.5884371E-02  3.1354778E-02
  4.5648560E-02  5.8234166E-02 -5.8507971E-02 -4.5961220E-02 -3.1706408E-02
 -1.6260048E-02 -1.9278914E-04  1.5884366E-02  3.1354770E-02  4.5648556E-02
  5.8234163E-02 -5.8507975E-02 -4.5961227E-02 -3.1706415E-02 -1.6260054E-02
 -1.9279400E-04  1.5884362E-02  3.1354766E-02  4.5648549E-02  5.8234159E-02
 -5.8507979E-02 -4.5961231E-02 -3.1706419E-02 -1.6260058E-02 -1.9279886E-04
  1.5884357E-02  3.1354763E-02  4.5648545E-02  5.8234151E-02 -5.8507983E-02
 -4.5961235E-02 -3.1706423E-02 -1.6260063E-02 -1.9280372E-04  1.5884353E-02
  3.1354759E-02  4.5648541E-02  5.8234148E-02 -5.8511838E-02 -4.5976117E-02
 -3.1721100E-02 -1.6266517E-02 -1.9300645E-04  1.5888479E-02  3.1365182E-02
  4.5657411E-02  5.8237597E-02 -5.6057941E-02 -4.4002630E-02 -3.0343695E-02
 -1.5555119E-02 -1.8045811E-04  1.5201765E-02  3.0011281E-02  4.3705285E-02
  5.5802241E-02 -5.6054235E-02 -4.3988664E-02 -3.0329952E-02 -1.5549072E-02
 -1.8027029E-04  1.5197886E-02  3.0001501E-02  4.3696921E-02  5.5798907E-02
 -5.6054246E-02 -4.3988675E-02 -3.0329961E-02 -1.5549082E-02 -1.8028023E-04
  1.5197876E-02  3.0001491E-02  4.3696914E-02  5.5798896E-02 -5.6054257E-02
 -4.3988682E-02 -3.0329971E-02 -1.5549092E-02 -1.8029017E-04  1.5197866E-02
  3.0001480E-02  4.3696903E-02  5.5798884E-02 -5.6054268E-02 -4.3988694E-02
 -3.0329980E-02 -1.5549102E-02 -1.8030009E-04  1.5197855E-02  3.0001471E-02
  4.3696892E-02  5.5798877E-02 -5.6054275E-02 -4.3988705E-02 -3.0329991E-02
 -1.5549112E-02 -1.8031003E-04  1.5197846E-02  3.0001462E-02  4.3696884E-02
  5.5798866E-02 -5.6054287E-02 -4.3988712E-02 -3.0330000E-02 -1.5549121E-02
 -1.8031996E-04  1.5197836E-02  3.0001450E-02  4.3696873E-02  5.5798855E-02
 -5.6054298E-02 -4.3988723E-02 -3.0330012E-02 -1.5549132E-02 -1.8032989E-04
  1.5197827E-02  3.0001441E-02  4.3696862E-02  5.5798847E-02 -5.6058023E-02
 -4.4002708E-02 -3.0343775E-02 -1.5555199E-02 -1.8053757E-04  1.5201686E-02
