           5
           4           9           9           9           4           2
           9           4           2           4           9           2
           4           9           2
   4.163060       4.198620       4.234179       4.269740       4.163060    
   4.198620       4.234179       4.269740       4.163060       4.198620    
   4.234179       4.269740       4.163060       4.198620       4.234180    
   4.269740       4.163060       4.198620       4.234180       4.269740    
   4.163060       4.198620       4.234180       4.269740       4.163060    
   4.198620       4.234179       4.269740       4.163060       4.198620    
   4.234179       4.269740       4.163060       4.198620       4.234179    
   4.269740       4.163060       4.198620       4.234179       4.269740    
   4.163060       4.198620       4.234179       4.269740       4.163060    
   4.198620       4.234179       4.269740       4.163060       4.198620    
   4.234179       4.269740       4.163060       4.198620       4.234180    
   4.269740       4.163060       4.198620       4.234179       4.269740    
   4.163060       4.198620       4.234179       4.269740       4.163060    
   4.198620       4.234179       4.269740       4.163060       4.198620    
   4.234179       4.269740       4.163060       4.198620       4.234179    
   4.269740       4.163060       4.198620       4.234179       4.269740    
   4.163060       4.198620       4.234179       4.269740       4.163060    
   4.198620       4.234179       4.269740       4.163060       4.198620    
   4.234180       4.269740       4.163060       4.198620       4.234179    
   4.269740       4.163060       4.198620       4.234179       4.269740    
   4.163060       4.198620       4.234179       4.269740       4.163060    
   4.198620       4.234179       4.269740       4.163060       4.198620    
   4.234180       4.269740       4.163060       4.198620       4.234179    
   4.269740       4.163060       4.198620       4.234179       4.269740    
   4.163060       4.198620       4.234179       4.269740       4.163060    
   4.198620       4.234180       4.269740       4.163060       4.198620    
   4.234179       4.269740       4.163060       4.198620       4.234179    
   4.269740       4.163060       4.198620       4.234179       4.269740    
   4.163060       4.198620       4.234180       4.269740       4.163060    
   4.198620       4.234180       4.269740       4.163060       4.198620    
   4.234180       4.269740       4.163060       4.198620       4.234180    
   4.269740       4.163060       4.198620       4.234180       4.269740    
   4.163060       4.198620       4.234179       4.269740       4.163060    
   4.198620       4.234180       4.269740       4.163060       4.198620    
   4.234180       4.269740       4.163060       4.198620       4.234180    
   4.269740       4.163060       4.198620       4.234180       4.269740    
   4.163060       4.198620       4.234180       4.269740       4.163060    
   4.198620       4.234179       4.269740       4.163060       4.198620    
   4.234179       4.269740       4.163060       4.198620       4.234179    
   4.269740       4.163060       4.198620       4.234180       4.269740    
   4.163060       4.198620       4.234179       4.269740       4.163060    
   4.198620       4.234179       4.269740       4.163060       4.198620    
   4.234179       4.269740       4.163060       4.198620       4.234180    
   4.269740       4.163060       4.198620       4.234179       4.269740    
   4.163060       4.198620       4.234179       4.269740       4.163060    
   4.198620       4.234179       4.269740       4.163060       4.198620    
   4.234179       4.269740       4.163060       4.198620       4.234180    
   4.269740       4.163060       4.198620       4.234179       4.269740    
   4.163060       4.198620       4.234179       4.269740       4.163060    
   4.198620       4.234179       4.269740       4.163060       4.198620    
   4.234179       4.269740       4.163060       4.198620       4.234179    
   4.269740       4.163060       4.198620       4.234179       4.269740    
   4.163060       4.198620       4.234179       4.269740       4.163060    
   4.198620       4.234179       4.269740       4.163060       4.198620    
   4.234180       4.269740       4.163060       4.198620       4.234179    
   4.269740       4.163060       4.198620       4.234179       4.269740    
   4.163060       4.198620       4.234179       4.269740       4.163060    
   4.198620       4.234179       4.269740       4.163060       4.198620    
   4.234179       4.269740       4.163060       4.198620       4.234179    
   4.269740       4.163060       4.198620       4.234179       4.269740    
   4.163060       4.198620       4.234180       4.269740       4.163060    
   4.198620       4.234180       4.269740       4.163060       4.198620    
   4.234180       4.269740       4.163060       4.198620       4.234179    
   4.269740       4.163060       4.198620       4.234179       4.269740    
   4.163060       4.198620       4.234179       4.269740    
 -2.2061734E-02 -2.2060027E-02 -2.2059813E-02 -2.2061093E-02 -1.6660141E-02
 -1.6658798E-02 -1.6658584E-02 -1.6659500E-02 -1.1256018E-02 -1.1255044E-02
 -1.1254830E-02 -1.1255377E-02 -5.6923949E-03 -5.6917993E-03 -5.6915856E-03
 -5.6917532E-03  1.0120929E-10  2.1381048E-07  4.2768218E-07  6.4171047E-07
  5.6923949E-03  5.6922268E-03  5.6924406E-03  5.6930366E-03  1.1256018E-02
  1.1255472E-02  1.1255686E-02  1.1256659E-02  1.6660141E-02  1.6659226E-02
  1.6659440E-02  1.6660783E-02  2.2061735E-02  2.2060456E-02  2.2060670E-02
  2.2062376E-02 -2.2626599E-02 -2.2624899E-02 -2.2624737E-02 -2.2626117E-02
 -1.7087627E-02 -1.7086303E-02 -1.7086143E-02 -1.7087147E-02 -1.1543916E-02
 -1.1542971E-02 -1.1542811E-02 -1.1543435E-02 -5.8371671E-03 -5.8366135E-03
 -5.8364533E-03 -5.8366875E-03 -7.6561680E-17  1.5970801E-07  3.1957418E-07
  4.7959412E-07  5.8371671E-03  5.8369325E-03  5.8370926E-03  5.8376468E-03
  1.1543916E-02  1.1543291E-02  1.1543451E-02  1.1544395E-02  1.7087627E-02
  1.7086623E-02  1.7086783E-02  1.7088110E-02  2.2626599E-02  2.2625219E-02
  2.2625379E-02  2.2627080E-02 -2.3750389E-02 -2.3748692E-02 -2.3748586E-02
 -2.3750067E-02 -1.7937964E-02 -1.7936654E-02 -1.7936548E-02 -1.7937643E-02
 -1.2116365E-02 -1.2115451E-02 -1.2115343E-02 -1.2116047E-02 -6.1249328E-03
 -6.1244206E-03 -6.1243144E-03 -6.1246147E-03 -5.3682102E-12  1.0565695E-07
  2.1147309E-07  3.1744003E-07  6.1249328E-03  6.1246320E-03  6.1247377E-03
  6.1252504E-03  1.2116365E-02  1.2115663E-02  1.2115769E-02  1.2116685E-02
  1.7937964E-02  1.7936867E-02  1.7936975E-02  1.7938284E-02  2.3750389E-02
  2.3748906E-02  2.3749013E-02  2.3750709E-02 -2.4727883E-02 -2.4726190E-02
 -2.4726138E-02 -2.4727723E-02 -1.8677650E-02 -1.8676355E-02 -1.8676303E-02
 -1.8677490E-02 -1.2614381E-02 -1.2613493E-02 -1.2613440E-02 -1.2614221E-02
 -6.3753007E-03 -6.3748290E-03 -6.3747764E-03 -6.3751428E-03 -7.8233059E-11
  5.2358224E-08  1.0494405E-07  1.5767765E-07  6.3753007E-03  6.3749338E-03
  6.3749864E-03  6.3754586E-03  1.2614380E-02  1.2613598E-02  1.2613651E-02
  1.2614539E-02  1.8677650E-02  1.8676462E-02  1.8676516E-02  1.8677808E-02
  2.4727883E-02  2.4726298E-02  2.4726350E-02  2.4728043E-02 -2.5107909E-02
 -2.5106221E-02 -2.5106221E-02 -2.5107909E-02 -1.8965352E-02 -1.8964075E-02
 -1.8964075E-02 -1.8965352E-02 -1.2808258E-02 -1.2807398E-02 -1.2807398E-02
 -1.2808258E-02 -6.4728409E-03 -6.4724088E-03 -6.4724088E-03 -6.4728409E-03
 -8.9196817E-11 -2.1956202E-10 -2.0506317E-10 -4.5680432E-11  6.4728409E-03
  6.4724083E-03  6.4724083E-03  6.4728409E-03  1.2808258E-02  1.2807398E-02
  1.2807398E-02  1.2808258E-02  1.8965352E-02  1.8964075E-02  1.8964075E-02
  1.8965352E-02  2.5107909E-02  2.5106220E-02  2.5106220E-02  2.5107909E-02
 -2.4729162E-02 -2.4727477E-02 -2.4727529E-02 -2.4729323E-02 -1.8679015E-02
 -1.8677752E-02 -1.8677806E-02 -1.8679176E-02 -1.2615845E-02 -1.2615013E-02
 -1.2615066E-02 -1.2616004E-02 -6.3762646E-03 -6.3758725E-03 -6.3759251E-03
 -6.3764229E-03 -8.4946612E-11 -5.2785140E-08 -1.0534497E-07 -1.5776263E-07
  6.3762646E-03  6.3757668E-03  6.3757142E-03  6.3761068E-03  1.2615845E-02
  1.2614907E-02  1.2614854E-02  1.2615686E-02  1.8679015E-02  1.8677646E-02
  1.8677592E-02  1.8678855E-02  2.4729162E-02  2.4727369E-02  2.4727315E-02
  2.4729002E-02 -2.3751739E-02 -2.3750057E-02 -2.3750164E-02 -2.3752060E-02
 -1.7939737E-02 -1.7938491E-02 -1.7938597E-02 -1.7940057E-02 -1.2118615E-02
 -1.2117811E-02 -1.2117917E-02 -1.2118934E-02 -6.1265090E-03 -6.1261575E-03
 -6.1262632E-03 -6.1268266E-03 -8.2007334E-17 -1.0595711E-07 -2.1177831E-07
 -3.1745986E-07  6.1265090E-03  6.1259451E-03  6.1258394E-03  6.1261915E-03
  1.2118615E-02  1.2117598E-02  1.2117492E-02  1.2118297E-02  1.7939737E-02
  1.7938277E-02  1.7938171E-02  1.7939417E-02  2.3751739E-02  2.3749843E-02
  2.3749735E-02  2.3751417E-02 -2.2627415E-02 -2.2625737E-02 -2.2625897E-02
 -2.2627896E-02 -1.7089294E-02 -1.7088065E-02 -1.7088225E-02 -1.7089775E-02
 -1.1546555E-02 -1.1545780E-02 -1.1545940E-02 -1.1547036E-02 -5.8391429E-03
 -5.8388328E-03 -5.8389925E-03 -5.8396226E-03 -7.4217536E-17 -1.5999746E-07
 -3.1986335E-07 -4.7959202E-07  5.8391429E-03  5.8385129E-03  5.8383527E-03
  5.8386633E-03  1.1546555E-02  1.1545460E-02  1.1545300E-02  1.1546075E-02
  1.7089294E-02  1.7087745E-02  1.7087584E-02  1.7088814E-02  2.2627415E-02
  2.2625417E-02  2.2625256E-02  2.2626933E-02 -2.2061734E-02 -2.2060061E-02
 -2.2060275E-02 -2.2062374E-02 -1.6661482E-02 -1.6660271E-02 -1.6660484E-02
 -1.6662125E-02 -1.1258894E-02 -1.1258148E-02 -1.1258362E-02 -1.1259535E-02
 -5.6946892E-03 -5.6944205E-03 -5.6946347E-03 -5.6953309E-03 -7.6338255E-11
 -2.1407585E-07 -4.2794809E-07 -6.4168563E-07  5.6946892E-03  5.6939931E-03
  5.6937789E-03  5.6940475E-03  1.1258894E-02  1.1257720E-02  1.1257506E-02
  1.1258252E-02  1.6661482E-02  1.6659843E-02  1.6659629E-02  1.6660841E-02
  2.2061734E-02  2.2059634E-02  2.2059420E-02  2.2061091E-02
 -2.2061728E-02 -2.2060057E-02 -2.2060271E-02 -2.2062371E-02 -2.2625288E-02
 -2.2623563E-02 -2.2623723E-02 -2.2625769E-02 -2.3745516E-02 -2.3743739E-02
 -2.3743846E-02 -2.3745837E-02 -2.4719542E-02 -2.4717711E-02 -2.4717765E-02
 -2.4719704E-02 -2.5098082E-02 -2.5096197E-02 -2.5096197E-02 -2.5098082E-02
 -2.4719542E-02 -2.4717605E-02 -2.4717551E-02 -2.4719382E-02 -2.3745516E-02
 -2.3743525E-02 -2.3743417E-02 -2.3745196E-02 -2.2625288E-02 -2.2623243E-02
 -2.2623083E-02 -2.2624807E-02 -2.2061728E-02 -2.2059629E-02 -2.2059415E-02
 -2.2061087E-02 -1.6662063E-02 -1.6660804E-02 -1.6661016E-02 -1.6662706E-02
 -1.7088031E-02 -1.7086718E-02 -1.7086878E-02 -1.7088512E-02 -1.7934658E-02
 -1.7933290E-02 -1.7933397E-02 -1.7934978E-02 -1.8670764E-02 -1.8669343E-02
 -1.8669397E-02 -1.8670924E-02 -1.8956827E-02 -1.8955352E-02 -1.8955352E-02
 -1.8956825E-02 -1.8670764E-02 -1.8669236E-02 -1.8669184E-02 -1.8670604E-02
 -1.7934658E-02 -1.7933076E-02 -1.7932970E-02 -1.7934337E-02 -1.7088031E-02
 -1.7086398E-02 -1.7086236E-02 -1.7087551E-02 -1.6662063E-02 -1.6660376E-02
 -1.6660161E-02 -1.6661422E-02 -1.1261399E-02 -1.1260557E-02 -1.1260771E-02
 -1.1262041E-02 -1.1547565E-02 -1.1546670E-02 -1.1546830E-02 -1.1548046E-02
 -1.2116194E-02 -1.2115244E-02 -1.2115350E-02 -1.2116512E-02 -1.2610559E-02
 -1.2609556E-02 -1.2609609E-02 -1.2610719E-02 -1.2802658E-02 -1.2801602E-02
 -1.2801602E-02 -1.2802658E-02 -1.2610559E-02 -1.2609450E-02 -1.2609398E-02
 -1.2610401E-02 -1.2116194E-02 -1.2115031E-02 -1.2114925E-02 -1.2115875E-02
 -1.1547566E-02 -1.1546350E-02 -1.1546190E-02 -1.1547086E-02 -1.1261400E-02
 -1.1260130E-02 -1.1259916E-02 -1.1260758E-02 -5.6998068E-03 -5.6993919E-03
 -5.6996061E-03 -5.7004485E-03 -5.8428640E-03 -5.8423956E-03 -5.8425553E-03
 -5.8433437E-03 -6.1269174E-03 -6.1263950E-03 -6.1265011E-03 -6.1272355E-03
 -6.3738241E-03 -6.3732481E-03 -6.3733011E-03 -6.3739824E-03 -6.4697363E-03
 -6.4691077E-03 -6.4691077E-03 -6.4697363E-03 -6.3738246E-03 -6.3731433E-03
 -6.3730907E-03 -6.3736667E-03 -6.1269184E-03 -6.1261840E-03 -6.1260778E-03
 -6.1266003E-03 -5.8428654E-03 -5.8420766E-03 -5.8419169E-03 -5.8423858E-03
 -5.6998082E-03 -5.6989659E-03 -5.6987521E-03 -5.6991666E-03 -7.1499076E-06
 -7.1672680E-06 -7.3811234E-06 -7.7914665E-06 -5.6162180E-06 -5.5795467E-06
 -5.7393768E-06 -6.0957013E-06 -2.1477135E-06 -2.0570089E-06 -2.1628121E-06
 -2.4651176E-06  9.6840017E-07  1.1123382E-06  1.0597627E-06  8.1067668E-07
  2.2389495E-06  2.4354638E-06  2.4354581E-06  2.2389343E-06  9.6782014E-07
  1.2169166E-06  1.2694871E-06  1.1255313E-06 -2.1487845E-06 -1.8464395E-06
 -1.7406269E-06 -1.8313484E-06 -5.6177910E-06 -5.2613964E-06 -5.1015400E-06
 -5.1382258E-06 -7.1519589E-06 -6.7415262E-06 -6.5276372E-06 -6.5102977E-06
  5.6873527E-03  5.6869034E-03  5.6866896E-03  5.6867111E-03  5.8335220E-03
  5.8331266E-03  5.8329669E-03  5.8330423E-03  6.1246012E-03  6.1242594E-03
  6.1241533E-03  6.1242832E-03  6.3778167E-03  6.3775284E-03  6.3774758E-03
  6.3776588E-03  6.4762998E-03  6.4760642E-03  6.4760642E-03  6.4762998E-03
  6.3778162E-03  6.3776332E-03  6.3776858E-03  6.3779741E-03  6.1245998E-03
  6.1244699E-03  6.1245761E-03  6.1249174E-03  5.8335201E-03  5.8334447E-03
  5.8336044E-03  5.8340002E-03  5.6873504E-03  5.6873285E-03  5.6875423E-03
  5.6879921E-03  1.1253551E-02  1.1252673E-02  1.1252459E-02  1.1252909E-02
  1.1542943E-02  1.1542120E-02  1.1541960E-02  1.1542464E-02  1.2118825E-02
  1.2118055E-02  1.2117948E-02  1.2118506E-02  1.2619698E-02  1.2618982E-02
  1.2618929E-02  1.2619539E-02  1.2814445E-02  1.2813781E-02  1.2813781E-02
  1.2814445E-02  1.2619697E-02  1.2619087E-02  1.2619140E-02  1.2619857E-02
  1.2118824E-02  1.2118266E-02  1.2118372E-02  1.2119142E-02  1.1542941E-02
  1.1542438E-02  1.1542598E-02  1.1543422E-02  1.1253548E-02  1.1253098E-02
  1.1253312E-02  1.1254190E-02  1.6659571E-02  1.6658274E-02  1.6658060E-02
  1.6658928E-02  1.7088901E-02  1.7087659E-02  1.7087499E-02  1.7088419E-02
  1.7943049E-02  1.7941860E-02  1.7941754E-02  1.7942730E-02  1.8685900E-02
  1.8684763E-02  1.8684711E-02  1.8685739E-02  1.8974701E-02  1.8973619E-02
  1.8973619E-02  1.8974701E-02  1.8685898E-02  1.8684870E-02  1.8684924E-02
  1.8686058E-02  1.7943049E-02  1.7942073E-02  1.7942179E-02  1.7943367E-02
  1.7088898E-02  1.7087977E-02  1.7088138E-02  1.7089378E-02  1.6659567E-02
  1.6658699E-02  1.6658913E-02  1.6660208E-02  2.2061737E-02  2.2060031E-02
  2.2059817E-02  2.2061097E-02  2.2628725E-02  2.2627071E-02  2.2626910E-02
  2.2628242E-02  2.3756607E-02  2.3755006E-02  2.3754898E-02  2.3756284E-02
  2.4737487E-02  2.4735941E-02  2.4735887E-02  2.4737326E-02  2.5118809E-02
  2.5117317E-02  2.5117317E-02  2.5118809E-02  2.4737487E-02  2.4736047E-02
  2.4736099E-02  2.4737647E-02  2.3756605E-02  2.3755217E-02  2.3755325E-02
  2.3756925E-02  2.2628721E-02  2.2627389E-02  2.2627549E-02  2.2629203E-02
  2.2061734E-02  2.2060454E-02  2.2060668E-02  2.2062376E-02
   4.163060       4.163060       4.163060       4.163060       4.163060    
   4.163060       4.163060       4.163060       4.163060       4.198620    
   4.198620       4.198620       4.198620       4.198620       4.198620    
   4.198620       4.198620       4.198620       4.234179       4.234179    
   4.234179       4.234180       4.234180       4.234180       4.234179    
   4.234179       4.234179       4.269740       4.269740       4.269740    
   4.269740       4.269740       4.269740       4.269740       4.269740    
   4.269740       4.163060       4.163060       4.163060       4.163060    
   4.163060       4.163060       4.163060       4.163060       4.163060    
   4.198620       4.198620       4.198620       4.198620       4.198620    
   4.198620       4.198620       4.198620       4.198620       4.234179    
   4.234179       4.234179       4.234180       4.234180       4.234180    
   4.234179       4.234179       4.234179       4.269740       4.269740    
   4.269740       4.269740       4.269740       4.269740       4.269740    
   4.269740       4.269740    
 -6.0657602E-02 -7.1369469E-02 -7.9347029E-02 -8.4281318E-02 -8.5990414E-02
 -8.4365726E-02 -7.9508170E-02 -7.1604274E-02 -6.0950100E-02 -6.0654011E-02
 -7.1346842E-02 -7.9310983E-02 -8.4249392E-02 -8.5985757E-02 -8.4343404E-02
 -7.9481475E-02 -7.1590178E-02 -6.0946118E-02 -6.0654011E-02 -7.1346842E-02
 -7.9310983E-02 -8.4249392E-02 -8.5985757E-02 -8.4343404E-02 -7.9481475E-02
 -7.1590178E-02 -6.0946118E-02 -6.0657602E-02 -7.1369469E-02 -7.9347029E-02
 -8.4281318E-02 -8.5990414E-02 -8.4365726E-02 -7.9508170E-02 -7.1604274E-02
 -6.0950100E-02 -2.2061734E-02 -2.2626599E-02 -2.3750389E-02 -2.4727883E-02
 -2.5107909E-02 -2.4729162E-02 -2.3751739E-02 -2.2627415E-02 -2.2061734E-02
 -2.2060027E-02 -2.2624899E-02 -2.3748692E-02 -2.4726190E-02 -2.5106221E-02
 -2.4727477E-02 -2.3750057E-02 -2.2625737E-02 -2.2060061E-02 -2.2059813E-02
 -2.2624737E-02 -2.3748586E-02 -2.4726138E-02 -2.5106221E-02 -2.4727529E-02
 -2.3750164E-02 -2.2625897E-02 -2.2060275E-02 -2.2061093E-02 -2.2626117E-02
 -2.3750067E-02 -2.4727723E-02 -2.5107909E-02 -2.4729323E-02 -2.3752060E-02
 -2.2627896E-02 -2.2062374E-02
 -6.0950093E-02 -4.7937013E-02 -3.3089694E-02 -1.6973328E-02 -2.0539756E-04
  1.6570916E-02  3.2710575E-02  4.7597237E-02  6.0657594E-02 -6.0946111E-02
 -4.7921240E-02 -3.3074111E-02 -1.6966490E-02 -2.0519896E-04  1.6566526E-02
  3.2699492E-02  4.7587842E-02  6.0654003E-02 -6.0946111E-02 -4.7921240E-02
 -3.3074111E-02 -1.6966488E-02 -2.0519848E-04  1.6566526E-02  3.2699492E-02
  4.7587842E-02  6.0654007E-02 -6.0950093E-02 -4.7937013E-02 -3.3089690E-02
 -1.6973326E-02 -2.0539609E-04  1.6570918E-02  3.2710575E-02  4.7597241E-02
  6.0657594E-02 -2.2061728E-02 -1.6662063E-02 -1.1261399E-02 -5.6998068E-03
 -7.1499076E-06  5.6873527E-03  1.1253551E-02  1.6659571E-02  2.2061737E-02
 -2.2060057E-02 -1.6660804E-02 -1.1260557E-02 -5.6993919E-03 -7.1672680E-06
  5.6869034E-03  1.1252673E-02  1.6658274E-02  2.2060031E-02 -2.2060271E-02
 -1.6661016E-02 -1.1260771E-02 -5.6996061E-03 -7.3811234E-06  5.6866896E-03
  1.1252459E-02  1.6658060E-02  2.2059817E-02 -2.2062371E-02 -1.6662706E-02
 -1.1262041E-02 -5.7004485E-03 -7.7914665E-06  5.6867111E-03  1.1252909E-02
  1.6658928E-02  2.2061097E-02
   4.163060       4.163060       4.163060       4.163060       4.163060    
   4.163060       4.163060       4.163060       4.163060       4.198620    
   4.198620       4.198620       4.198620       4.198620       4.198620    
   4.198620       4.198620       4.198620       4.234179       4.234179    
   4.234179       4.234180       4.234180       4.234180       4.234179    
   4.234179       4.234179       4.269740       4.269740       4.269740    
   4.269740       4.269740       4.269740       4.269740       4.269740    
   4.269740       4.163060       4.163060       4.163060       4.163060    
   4.163060       4.163060       4.163060       4.163060       4.163060    
   4.198620       4.198620       4.198620       4.198620       4.198620    
   4.198620       4.198620       4.198620       4.198620       4.234179    
   4.234179       4.234179       4.234180       4.234180       4.234180    
   4.234179       4.234179       4.234179       4.269740       4.269740    
   4.269740       4.269740       4.269740       4.269740       4.269740    
   4.269740       4.269740    
  2.2061735E-02  2.2626599E-02  2.3750389E-02  2.4727883E-02  2.5107909E-02
  2.4729162E-02  2.3751739E-02  2.2627415E-02  2.2061734E-02  2.2060456E-02
  2.2625219E-02  2.3748906E-02  2.4726298E-02  2.5106220E-02  2.4727369E-02
  2.3749843E-02  2.2625417E-02  2.2059634E-02  2.2060670E-02  2.2625379E-02
  2.3749013E-02  2.4726350E-02  2.5106220E-02  2.4727315E-02  2.3749735E-02
  2.2625256E-02  2.2059420E-02  2.2062376E-02  2.2627080E-02  2.3750709E-02
  2.4728043E-02  2.5107909E-02  2.4729002E-02  2.3751417E-02  2.2626933E-02
  2.2061091E-02  6.0657591E-02  7.1369462E-02  7.9347022E-02  8.4281310E-02
  8.5990414E-02  8.4365726E-02  7.9508170E-02  7.1604282E-02  6.0950104E-02
  6.0654003E-02  7.1346834E-02  7.9310983E-02  8.4249385E-02  8.5985757E-02
  8.4343411E-02  7.9481475E-02  7.1590178E-02  6.0946122E-02  6.0654003E-02
  7.1346834E-02  7.9310983E-02  8.4249392E-02  8.5985757E-02  8.4343411E-02
  7.9481475E-02  7.1590178E-02  6.0946122E-02  6.0657594E-02  7.1369462E-02
  7.9347022E-02  8.4281310E-02  8.5990414E-02  8.4365726E-02  7.9508170E-02
  7.1604282E-02  6.0950104E-02
 -2.2061728E-02 -1.6662063E-02 -1.1261400E-02 -5.6998082E-03 -7.1519589E-06
  5.6873504E-03  1.1253548E-02  1.6659567E-02  2.2061734E-02 -2.2059629E-02
 -1.6660376E-02 -1.1260130E-02 -5.6989659E-03 -6.7415262E-06  5.6873285E-03
  1.1253098E-02  1.6658699E-02  2.2060454E-02 -2.2059415E-02 -1.6660161E-02
 -1.1259916E-02 -5.6987521E-03 -6.5276372E-06  5.6875423E-03  1.1253312E-02
  1.6658913E-02  2.2060668E-02 -2.2061087E-02 -1.6661422E-02 -1.1260758E-02
 -5.6991666E-03 -6.5102977E-06  5.6879921E-03  1.1254190E-02  1.6660208E-02
  2.2062376E-02 -6.0950104E-02 -4.7937024E-02 -3.3089701E-02 -1.6973337E-02
 -2.0540717E-04  1.6570909E-02  3.2710567E-02  4.7597233E-02  6.0657591E-02
 -6.0946118E-02 -4.7921252E-02 -3.3074122E-02 -1.6966499E-02 -2.0520846E-04
  1.6566519E-02  3.2699484E-02  4.7587838E-02  6.0653999E-02 -6.0946118E-02
 -4.7921248E-02 -3.3074122E-02 -1.6966499E-02 -2.0520797E-04  1.6566519E-02
  3.2699484E-02  4.7587838E-02  6.0653999E-02 -6.0950100E-02 -4.7937021E-02
 -3.3089701E-02 -1.6973335E-02 -2.0540570E-04  1.6570909E-02  3.2710567E-02
  4.7597233E-02  6.0657591E-02
   4.163060       4.198620       4.234179       4.269740       4.163060    
   4.198620       4.234179       4.269740       4.163060       4.198620    
   4.234179       4.269740       4.163060       4.198620       4.234180    
   4.269740       4.163060       4.198620       4.234180       4.269740    
   4.163060       4.198620       4.234180       4.269740       4.163060    
   4.198620       4.234179       4.269740       4.163060       4.198620    
   4.234179       4.269740       4.163060       4.198620       4.234179    
   4.269740       4.163060       4.198620       4.234179       4.269740    
   4.163060       4.198620       4.234179       4.269740       4.163060    
   4.198620       4.234179       4.269740       4.163060       4.198620    
   4.234180       4.269740       4.163060       4.198620       4.234180    
   4.269740       4.163060       4.198620       4.234180       4.269740    
   4.163060       4.198620       4.234179       4.269740       4.163060    
   4.198620       4.234179       4.269740       4.163060       4.198620    
   4.234179       4.269740    
 -6.0657602E-02 -6.0654011E-02 -6.0654011E-02 -6.0657602E-02 -4.7639482E-02
 -4.7629338E-02 -4.7629338E-02 -4.7639482E-02 -3.2804966E-02 -3.2792825E-02
 -3.2792825E-02 -3.2804966E-02 -1.6721353E-02 -1.6716091E-02 -1.6716091E-02
 -1.6721353E-02 -6.1756742E-09 -6.3603802E-09 -6.3603802E-09 -6.1756742E-09
  1.6721342E-02  1.6716078E-02  1.6716078E-02  1.6721342E-02  3.2804955E-02
  3.2792814E-02  3.2792814E-02  3.2804955E-02  4.7639471E-02  4.7629327E-02
  4.7629327E-02  4.7639474E-02  6.0657591E-02  6.0654003E-02  6.0654003E-02
  6.0657594E-02 -2.2061734E-02 -2.2060027E-02 -2.2059813E-02 -2.2061093E-02
 -1.6660141E-02 -1.6658798E-02 -1.6658584E-02 -1.6659500E-02 -1.1256018E-02
 -1.1255044E-02 -1.1254830E-02 -1.1255377E-02 -5.6923949E-03 -5.6917993E-03
 -5.6915856E-03 -5.6917532E-03  1.0120929E-10  2.1381048E-07  4.2768218E-07
  6.4171047E-07  5.6923949E-03  5.6922268E-03  5.6924406E-03  5.6930366E-03
  1.1256018E-02  1.1255472E-02  1.1255686E-02  1.1256659E-02  1.6660141E-02
  1.6659226E-02  1.6659440E-02  1.6660783E-02  2.2061735E-02  2.2060456E-02
  2.2060670E-02  2.2062376E-02
 -6.0950093E-02 -6.0946111E-02 -6.0946111E-02 -6.0950093E-02 -7.1575083E-02
 -7.1559891E-02 -7.1559891E-02 -7.1575083E-02 -7.9468049E-02 -7.9438999E-02
 -7.9438999E-02 -7.9468049E-02 -8.4334172E-02 -8.4308252E-02 -8.4308252E-02
 -8.4334172E-02 -8.5994996E-02 -8.5994996E-02 -8.5994996E-02 -8.5994996E-02
 -8.4334172E-02 -8.4308252E-02 -8.4308252E-02 -8.4334172E-02 -7.9468057E-02
 -7.9438999E-02 -7.9438999E-02 -7.9468057E-02 -7.1575090E-02 -7.1559899E-02
 -7.1559899E-02 -7.1575090E-02 -6.0950104E-02 -6.0946118E-02 -6.0946118E-02
 -6.0950100E-02 -2.2061728E-02 -2.2060057E-02 -2.2060271E-02 -2.2062371E-02
 -2.2625288E-02 -2.2623563E-02 -2.2623723E-02 -2.2625769E-02 -2.3745516E-02
 -2.3743739E-02 -2.3743846E-02 -2.3745837E-02 -2.4719542E-02 -2.4717711E-02
 -2.4717765E-02 -2.4719704E-02 -2.5098082E-02 -2.5096197E-02 -2.5096197E-02
 -2.5098082E-02 -2.4719542E-02 -2.4717605E-02 -2.4717551E-02 -2.4719382E-02
 -2.3745516E-02 -2.3743525E-02 -2.3743417E-02 -2.3745196E-02 -2.2625288E-02
 -2.2623243E-02 -2.2623083E-02 -2.2624807E-02 -2.2061728E-02 -2.2059629E-02
 -2.2059415E-02 -2.2061087E-02
   4.163060       4.198620       4.234179       4.269740       4.163060    
   4.198620       4.234179       4.269740       4.163060       4.198620    
   4.234179       4.269740       4.163060       4.198620       4.234180    
   4.269740       4.163060       4.198620       4.234180       4.269740    
   4.163060       4.198620       4.234180       4.269740       4.163060    
   4.198620       4.234179       4.269740       4.163060       4.198620    
   4.234179       4.269740       4.163060       4.198620       4.234179    
   4.269740       4.163060       4.198620       4.234179       4.269740    
   4.163060       4.198620       4.234179       4.269740       4.163060    
   4.198620       4.234179       4.269740       4.163060       4.198620    
   4.234180       4.269740       4.163060       4.198620       4.234180    
   4.269740       4.163060       4.198620       4.234180       4.269740    
   4.163060       4.198620       4.234179       4.269740       4.163060    
   4.198620       4.234179       4.269740       4.163060       4.198620    
   4.234179       4.269740    
 -2.2061734E-02 -2.2060061E-02 -2.2060275E-02 -2.2062374E-02 -1.6661482E-02
 -1.6660271E-02 -1.6660484E-02 -1.6662125E-02 -1.1258894E-02 -1.1258148E-02
 -1.1258362E-02 -1.1259535E-02 -5.6946892E-03 -5.6944205E-03 -5.6946347E-03
 -5.6953309E-03 -7.6338255E-11 -2.1407585E-07 -4.2794809E-07 -6.4168563E-07
  5.6946892E-03  5.6939931E-03  5.6937789E-03  5.6940475E-03  1.1258894E-02
  1.1257720E-02  1.1257506E-02  1.1258252E-02  1.6661482E-02  1.6659843E-02
  1.6659629E-02  1.6660841E-02  2.2061734E-02  2.2059634E-02  2.2059420E-02
  2.2061091E-02 -6.0950100E-02 -6.0946118E-02 -6.0946118E-02 -6.0950100E-02
 -4.7894634E-02 -4.7879621E-02 -4.7879621E-02 -4.7894631E-02 -3.2994937E-02
 -3.2980435E-02 -3.2980435E-02 -3.2994937E-02 -1.6822265E-02 -1.6816318E-02
 -1.6816318E-02 -1.6822265E-02  3.3006122E-09  3.1952323E-09  3.1952323E-09
  3.3006122E-09  1.6822271E-02  1.6816325E-02  1.6816324E-02  1.6822271E-02
  3.2994941E-02  3.2980442E-02  3.2980442E-02  3.2994941E-02  4.7894638E-02
  4.7879625E-02  4.7879625E-02  4.7894638E-02  6.0950104E-02  6.0946122E-02
  6.0946122E-02  6.0950104E-02
  2.2061737E-02  2.2060031E-02  2.2059817E-02  2.2061097E-02  2.2628725E-02
  2.2627071E-02  2.2626910E-02  2.2628242E-02  2.3756607E-02  2.3755006E-02
  2.3754898E-02  2.3756284E-02  2.4737487E-02  2.4735941E-02  2.4735887E-02
  2.4737326E-02  2.5118809E-02  2.5117317E-02  2.5117317E-02  2.5118809E-02
  2.4737487E-02  2.4736047E-02  2.4736099E-02  2.4737647E-02  2.3756605E-02
  2.3755217E-02  2.3755325E-02  2.3756925E-02  2.2628721E-02  2.2627389E-02
  2.2627549E-02  2.2629203E-02  2.2061734E-02  2.2060454E-02  2.2060668E-02
  2.2062376E-02  6.0657594E-02  6.0654003E-02  6.0654007E-02  6.0657594E-02
  7.1398757E-02  7.1377218E-02  7.1377218E-02  7.1398757E-02  7.9387307E-02
  7.9353616E-02  7.9353616E-02  7.9387307E-02  8.4313005E-02  8.4284693E-02
  8.4284693E-02  8.4313005E-02  8.5994996E-02  8.5994996E-02  8.5994996E-02
  8.5994996E-02  8.4312998E-02  8.4284686E-02  8.4284686E-02  8.4312998E-02
  7.9387300E-02  7.9353616E-02  7.9353616E-02  7.9387300E-02  7.1398757E-02
  7.1377218E-02  7.1377218E-02  7.1398757E-02  6.0657591E-02  6.0653999E-02
  6.0653999E-02  6.0657591E-02
